29.44737434 236.81808472 -20.37058449
29.21528816 236.83538818 -20.36383057
29.24083900 236.83824158 -20.36530876
29.26437569 236.83648682 -20.37157631
29.28699493 236.83769226 -20.37090874
29.30411530 236.83653259 -20.37830544
29.38563919 236.83587646 -20.37759781
29.42243385 236.84054565 -20.36838722
29.45941925 236.85224915 -20.37656212
29.45405579 236.86625671 -20.37932968
29.47023010 236.86639404 -20.38001251
30.02615738 236.62237549 -20.33647156
30.04241371 236.61911011 -20.34493065
30.06753159 236.61994934 -20.34477234
30.09284973 236.61264038 -20.34521294
30.00181007 236.64845276 -20.34222221
30.01193619 236.63674927 -20.34782600
30.03365707 236.62707520 -20.35150719
30.07477379 236.62896729 -20.34617233
30.09053040 236.64250183 -20.34213829
29.99788475 236.66630554 -20.34550476
30.00461006 236.66760254 -20.35202217
30.06988525 236.66661072 -20.35372543
30.09547234 236.66323853 -20.34521866
29.99736977 236.68807983 -20.34365273
30.00686264 236.70243835 -20.33987045
30.06826019 236.69201660 -20.33918571
30.09586143 236.68984985 -20.34465599
30.00099182 236.71018982 -20.35648727
30.01514244 236.71441650 -20.34311485
30.04412460 236.71998596 -20.34515190
30.06782341 236.71495056 -20.34451675
30.08807182 236.71104431 -20.35221672
29.18280411 236.80081177 -20.33391380
29.23525238 236.79324341 -20.34501076
29.26241112 236.79193115 -20.34550095
29.28905678 236.79997253 -20.35166168
29.18932152 236.81822205 -20.33429337
29.20898819 236.82099915 -20.34422684
29.23156548 236.82986450 -20.34524345
29.26464081 236.82902527 -20.34785461
29.28772354 236.81764221 -20.34418869
29.30897141 236.82141113 -20.35559845
29.34587479 236.82026672 -20.34433556
29.35581398 236.82000732 -20.35039902
29.44050980 236.82189941 -20.34784126
29.18429184 236.84292603 -20.34187889
29.21778297 236.83642578 -20.33897209
29.24006653 236.83737183 -20.34089088
29.28330612 236.83718872 -20.35046768
29.42782402 236.83862305 -20.35183334
30.03558540 236.58903503 -20.31007385
30.02067947 236.61953735 -20.31724930
30.04225540 236.61172485 -20.31776237
30.06878471 236.61558533 -20.31830597
30.08584785 236.62220764 -20.31376648
30.00108147 236.64437866 -20.31822777
30.00813866 236.63302612 -20.32043266
30.07891846 236.62896729 -20.31838036
30.08960342 236.64086914 -20.31808281
29.99705505 236.66419983 -20.31870461
30.00593567 236.66650391 -20.32136345
30.05307770 236.67404175 -20.31077194
30.09737587 236.66502380 -20.31975555
29.99925804 236.68649292 -20.31798553
30.00952339 236.69996643 -20.31844711
30.03789902 236.70303345 -20.31605911
30.07793045 236.70014954 -20.31258011
30.09202003 236.69311523 -20.32075691
30.00335503 236.70671082 -20.33180428
30.04282761 236.71427917 -20.31913376
30.06422615 236.71044922 -20.31991005
30.08946991 236.70967102 -20.31042862
30.07411957 236.73513794 -20.33101273
29.17690277 236.77937317 -20.31314468
29.16983414 236.79153442 -20.31047058
29.18467903 236.79817200 -20.31450844
29.23852348 236.79154968 -20.31889725
29.25968170 236.79937744 -20.32113266
29.16569138 236.82489014 -20.30960846
29.18317223 236.82035828 -20.32240486
29.19912529 236.82417297 -20.33108521
29.24309731 236.81990051 -20.31470299
29.26223755 236.82380676 -20.31995010
29.28489304 236.81704712 -20.32265091
29.34259796 236.82418823 -20.31903458
29.36169434 236.81730652 -20.32312012
29.19271088 236.84020996 -20.31713295
29.21247292 236.84228516 -20.31768417
29.23456383 236.83891296 -20.31821251
30.04831886 236.59741211 -20.28761292
30.05825043 236.59812927 -20.29103088
30.00159073 236.62127686 -20.30249214
30.01867294 236.61341858 -20.29342651
30.04379463 236.60461426 -20.29427147
30.07027435 236.61196899 -20.29257011
30.08571243 236.61944580 -20.28975105
29.99936676 236.63940430 -20.29165077
30.00574303 236.63401794 -20.29725075
30.07970428 236.62910461 -20.30276871
30.09084702 236.63684082 -20.29203796
30.10954285 236.62921143 -20.30231285
30.07533264 236.67602539 -20.29705238
30.09510231 236.66445923 -20.29344368
29.99962234 236.68780518 -20.29124832
30.01563454 236.69651794 -20.29521751
30.04193878 236.69963074 -20.28927040
30.08940315 236.69024658 -20.29260445
30.02120018 236.70712280 -20.29384422
30.04222679 236.70909119 -20.29465103
30.06339073 236.70642090 -20.29723358
30.09123802 236.70956421 -20.28290558
29.16556168 236.80264282 -20.29226112
29.18428802 236.79130554 -20.29342651
29.21346855 236.79154968 -20.29277420
29.23488045 236.80004883 -20.29731178
29.15994453 236.81993103 -20.29232979
29.19025230 236.82902527 -20.29216576
29.21196556 236.82322693 -20.28634262
29.23873329 236.82229614 -20.29469299
29.33775139 236.82263184 -20.29204750
29.14073944 236.84402466 -20.28295517
29.15928459 236.84454346 -20.28896713
29.18318748 236.84448242 -20.29192352
29.20789719 236.84191895 -20.29355812
29.14867783 236.86724854 -20.28339195
29.99922180 236.59934998 -20.25565338
30.02467728 236.59773254 -20.26281166
30.04325676 236.59326172 -20.26503944
30.06279755 236.59542847 -20.26363564
29.99929810 236.62193298 -20.26092529
30.01246643 236.60971069 -20.26875305
30.03092575 236.60025024 -20.27527046
30.07095146 236.60797119 -20.26794243
29.99642754 236.63830566 -20.26614189
30.00736046 236.63833618 -20.27014923
30.09162521 236.63958740 -20.26774406
30.13481903 236.65058899 -20.27724838
29.99728012 236.66384888 -20.26690292
30.00548553 236.67247009 -20.26468468
30.07854843 236.65258789 -20.27957726
30.09366226 236.66383362 -20.26578712
30.10953903 236.67044067 -20.27961349
30.00264549 236.68272400 -20.26224327
30.01899529 236.69808960 -20.27132988
30.07142448 236.69155884 -20.26750946
30.08862877 236.67961121 -20.26949120
30.11014748 236.68017578 -20.27313232
30.04031754 236.70611572 -20.26391602
29.16178322 236.80035400 -20.26659966
29.18494225 236.79699707 -20.26901817
29.21139908 236.80102539 -20.27569199
29.31818771 236.80325317 -20.26171875
29.34971046 236.80606079 -20.26854897
29.13737488 236.82182312 -20.26136208
29.15289879 236.81878662 -20.27277756
29.19577789 236.81152344 -20.25862122
29.21060181 236.82092285 -20.26712418
29.32602501 236.81828308 -20.26535606
29.33292198 236.81906128 -20.27002907
29.13501740 236.84414673 -20.26576614
29.15551186 236.85057068 -20.27064896
29.18455887 236.84831238 -20.26835442
29.20475388 236.84208679 -20.26853180
29.22496986 236.85058594 -20.27711105
29.11173248 236.87026978 -20.26086044
29.14053345 236.86117554 -20.26858521
29.15061951 236.86163330 -20.25876999
30.08705902 236.56246948 -20.24516869
29.99667358 236.59680176 -20.23110390
30.01778984 236.59086609 -20.23860550
30.04138565 236.58363342 -20.23884392
30.06408119 236.59234619 -20.24209976
30.08480072 236.58050537 -20.23673058
29.99769211 236.61590576 -20.23988152
30.07455063 236.60891724 -20.24091339
30.08550262 236.61718750 -20.24256897
29.99351501 236.64044189 -20.24032211
30.00679398 236.64219666 -20.25219345
30.08990860 236.63923645 -20.24091530
30.10830688 236.64071655 -20.24725342
29.99708748 236.66326904 -20.24062157
30.00621414 236.67367554 -20.23861694
30.03624725 236.67561340 -20.22919083
30.07590294 236.67446899 -20.23647308
30.08851051 236.66184998 -20.24285507
30.00195122 236.67999268 -20.24401283
30.01788521 236.69041443 -20.24397850
30.04115677 236.68936157 -20.23983574
30.06844330 236.68695068 -20.24402809
30.09426308 236.68052673 -20.24297333
30.10908890 236.67932129 -20.23827934
29.15716171 236.80220032 -20.24599266
29.31715012 236.80639648 -20.23560524
29.33671570 236.80538940 -20.23844528
29.11561394 236.82598877 -20.23526382
29.13010979 236.81733704 -20.24258423
29.18317986 236.82003784 -20.24443054
29.32278824 236.81123352 -20.24288940
29.33113098 236.81552124 -20.24798584
29.10680580 236.85009766 -20.23687363
29.12506485 236.84736633 -20.24897766
29.16251755 236.85272217 -20.24109268
29.18046379 236.84518433 -20.24925041
29.07567215 236.87606812 -20.22998619
29.10983658 236.86863708 -20.23678398
29.13248253 236.86891174 -20.23776245
29.15253448 236.86502075 -20.24378777
29.19227600 236.86026001 -20.23966026
29.09178352 236.89157104 -20.23597908
29.10641861 236.89184570 -20.24148178
30.01772118 236.57144165 -20.20932770
30.04309845 236.56880188 -20.20987701
29.99921799 236.59095764 -20.20922852
30.01445580 236.58367920 -20.21533775
30.04730797 236.57873535 -20.21711349
30.06628418 236.58889771 -20.21611977
29.99279404 236.61331177 -20.21439934
30.07664680 236.61167908 -20.21269608
30.08495522 236.61608887 -20.21788216
29.99015427 236.63755798 -20.21421051
30.00672150 236.64645386 -20.21634102
30.09012604 236.64285278 -20.21740532
30.10817719 236.64833069 -20.21461487
29.99643135 236.66238403 -20.21319580
30.01520538 236.67480469 -20.21352577
30.04619408 236.67385864 -20.20616531
30.07267761 236.67091370 -20.21315002
30.08731270 236.66172791 -20.22024918
30.01822281 236.68463135 -20.21858215
30.04156303 236.68386841 -20.21379471
30.06415176 236.68608093 -20.21729851
29.30192184 236.76631165 -20.21553802
29.30080032 236.79870605 -20.22396660
29.31008911 236.79872131 -20.21598053
29.11002350 236.82554626 -20.21294212
29.13268089 236.81619263 -20.21540833
29.15695953 236.81904602 -20.22020912
29.17489243 236.83079529 -20.22776413
29.31970978 236.81007385 -20.22692871
29.08665657 236.85076904 -20.20976257
29.09984589 236.84402466 -20.21898270
29.15657997 236.84616089 -20.21358871
29.17651176 236.84239197 -20.22732544
29.06556892 236.88070679 -20.20208740
29.08601761 236.87216187 -20.21121216
29.10435486 236.87503052 -20.21736145
29.13347626 236.87239075 -20.21443939
29.15408516 236.86695862 -20.21883392
29.06386566 236.90039062 -20.21295929
29.08081818 236.89610291 -20.20535660
29.10832405 236.88897705 -20.20843315
30.00424957 236.54698181 -20.18077850
30.03208351 236.54472351 -20.17819786
29.99866295 236.56755066 -20.18415260
30.01601219 236.56340027 -20.18723297
30.04183578 236.56074524 -20.18736076
30.06351852 236.56652832 -20.19012070
29.99407196 236.58851624 -20.18806267
30.00878906 236.57881165 -20.19944954
30.06706619 236.58615112 -20.18792152
30.09004974 236.58410645 -20.17678070
30.11253548 236.59159851 -20.19453049
29.98610497 236.61238098 -20.18751335
30.07700539 236.61116028 -20.18926620
30.08466530 236.61367798 -20.19129944
29.98565102 236.63850403 -20.18772507
30.08587074 236.64093018 -20.19208145
29.99565315 236.66070557 -20.18913269
30.04619217 236.67236328 -20.18579483
30.07228661 236.66432190 -20.18957710
30.09527206 236.65414429 -20.18966103
30.02610207 236.68046570 -20.20084000
30.03978157 236.68058777 -20.19495583
29.27398300 236.74453735 -20.18195152
29.29325676 236.77188110 -20.18187332
29.29731369 236.78410339 -20.18922424
29.30608177 236.78883362 -20.19795609
29.10974884 236.82585144 -20.19202614
29.06324387 236.85675049 -20.18065643
29.07980919 236.84587097 -20.18900871
29.10932922 236.84042358 -20.19099426
29.13648987 236.84796143 -20.19197655
29.16138077 236.83761597 -20.19640732
29.03689575 236.87786865 -20.17806244
29.06302071 236.87231445 -20.18263626
29.07783699 236.87677002 -20.19352150
29.10510445 236.88247681 -20.19080734
29.13062668 236.87243652 -20.19157982
29.06159401 236.89718628 -20.18921852
29.08140945 236.89364624 -20.18544197
29.10389900 236.89031982 -20.18713570
29.05137253 236.91427612 -20.18313789
29.99719048 236.53988647 -20.15547943
30.01565170 236.54037476 -20.15864563
30.03799248 236.54327393 -20.16039276
29.99337578 236.56129456 -20.16317558
30.01279449 236.55213928 -20.17017174
30.04718018 236.55647278 -20.16600990
30.06124496 236.56600952 -20.16428757
29.97564316 236.58866882 -20.15739822
29.98446083 236.58596802 -20.16106606
30.07045555 236.58750916 -20.16334724
30.08233070 236.59429932 -20.16863823
29.97709084 236.60311890 -20.15312958
29.98159218 236.61462402 -20.16366196
30.05344009 236.62095642 -20.17048264
30.08705521 236.61718750 -20.16332054
29.97540092 236.63261414 -20.16069984
29.98249626 236.64009094 -20.16227913
30.00848961 236.64450073 -20.16468430
30.03322411 236.65074158 -20.16066933
30.07715797 236.64067078 -20.16028404
30.08422089 236.64060974 -20.17099190
29.99233627 236.66300964 -20.16534424
30.01597977 236.66717529 -20.16279030
30.04246330 236.66587830 -20.16542625
30.06684113 236.65803528 -20.16362953
30.09163284 236.65359497 -20.16654968
29.26530075 236.72589111 -20.16253662
29.27387619 236.75091553 -20.15589333
29.28073692 236.74839783 -20.15798759
29.28308105 236.76078796 -20.16342545
29.07589531 236.83193970 -20.17496300
29.10123253 236.83309937 -20.17383957
29.06236076 236.85310364 -20.16495132
29.08296204 236.84338379 -20.16209030
29.10909271 236.84603882 -20.16585922
29.12338257 236.84696960 -20.17407417
29.03792191 236.87567139 -20.15637207
29.05147362 236.87411499 -20.16746521
29.08714867 236.88259888 -20.15615845
29.10987473 236.87205505 -20.16424370
29.13322639 236.86959839 -20.17418861
29.03476334 236.89456177 -20.15437317
29.05460739 236.89808655 -20.16327858
29.08010674 236.89939880 -20.16390419
29.10184097 236.89637756 -20.16608429
29.03318787 236.91857910 -20.16100502
29.05698967 236.91667175 -20.15524292
29.07778168 236.91525269 -20.16329193
29.27922440 236.75531006 -20.14973831
30.48986626 235.70297241 -17.14115334
30.48250771 235.71665955 -17.13484955
30.46678162 235.70730591 -17.12950897
30.45009613 235.72303772 -17.12445450
30.53291321 235.58468628 -17.13685036
30.51731873 235.60310364 -17.14284706
30.53323174 235.59579468 -17.14256096
30.57197571 235.60188293 -17.13580894
30.50821495 235.62100220 -17.14836884
30.50758743 235.64402771 -17.14689636
30.54302216 235.55876160 -17.12122345
30.57399750 235.55282593 -17.11137772
30.51718521 235.57614136 -17.11847496
30.54088783 235.57856750 -17.12508774
30.56193733 235.57839966 -17.12084961
30.58310509 235.57498169 -17.11119652
30.53900719 235.59393311 -17.13046265
30.55948448 235.59092712 -17.12742615
30.58028984 235.58801270 -17.11448860
30.52892494 235.61387634 -17.12786484
30.50739479 235.55545044 -17.09242630
30.49616623 235.56536865 -17.09926033
30.51412773 235.56436157 -17.10148811
30.59175873 235.57115173 -17.10260773
30.61037064 235.56661987 -17.09142876
30.58244705 235.59436035 -17.10577774
30.49778557 235.54132080 -17.06094360
30.50446892 235.54954529 -17.06969261
30.59453583 235.55734253 -17.07291412
30.62261391 235.55561829 -17.07588959
30.64066505 235.55165100 -17.06297874
30.65435600 235.55316162 -17.05936432
30.51446533 235.56291199 -17.07201767
30.52510262 235.56510925 -17.06686401
30.57828522 235.58303833 -17.06785011
30.62128448 235.56282043 -17.07531738
30.64023209 235.56706238 -17.06949234
30.65745544 235.56306458 -17.06196213
30.49300385 235.55018616 -17.05514717
30.50467682 235.54988098 -17.05422592
30.64284515 235.54656982 -17.04681587
30.54299164 235.57704163 -17.04983902
30.65433121 235.56318665 -17.05598068
30.77349472 236.28504944 -17.14773178
30.79368782 236.28500366 -17.13952637
30.82204819 236.26400757 -17.14443970
30.83841133 236.26501465 -17.13928604
30.77292442 236.29898071 -17.14655495
30.79163933 236.29441833 -17.14061546
30.80745888 236.25169373 -17.12816238
30.80675507 236.28030396 -17.12921715
30.82471085 236.27427673 -17.11633873
30.80064583 236.28898621 -17.13280296
30.81831741 236.29144287 -17.12711906
30.84523582 236.28953552 -17.12431717
30.85661697 236.23092651 -17.10035515
30.82938957 236.25531006 -17.10402298
30.84663963 236.25665283 -17.09006882
30.86410904 236.24900818 -17.08439636
30.83034897 236.27110291 -17.10322571
30.84541130 236.26809692 -17.09746170
30.87816238 236.20498657 -17.06601143
30.86174011 236.23358154 -17.05845642
30.86586952 236.22280884 -17.06246567
30.85467529 236.24389648 -17.07082558
30.86759949 236.25093079 -17.06623459
30.85873985 236.22929382 -17.04704094
30.86753845 236.22529602 -17.04623222
30.87236404 236.23953247 -17.04759979
30.53358459 237.00672913 -17.14658546
30.53322411 237.01727295 -17.13804436
30.53442574 237.01045227 -17.13376427
30.72196960 236.69369507 -17.14736176
30.74126244 236.69427490 -17.14710617
30.72091103 236.69247437 -17.12280083
30.74694443 236.68669128 -17.11480522
30.71920013 236.70904541 -17.11804771
30.74097061 236.70446777 -17.13350296
30.69927216 236.67900085 -17.10179520
30.71600342 236.68850708 -17.09931755
30.73752022 236.70663452 -17.10317230
30.61270714 236.73928833 -17.32277489
30.64634323 236.72921753 -17.29542542
30.73443985 236.70185852 -17.23990822
29.71649551 236.20947266 -16.14893913
29.71940422 236.20419312 -16.13987350
29.71018028 236.21444702 -16.13435745
29.72599602 236.21684265 -16.13286591
27.62526512 233.43191528 -15.69174004
27.61897850 233.42092896 -15.66971207
27.62812042 233.41796875 -15.63792610
28.87431335 234.29937744 -14.91512012
28.91015244 234.30752563 -14.90112686
28.88835526 234.29528809 -14.89365578
28.91446495 234.30174255 -14.89684772
28.89273453 234.29753113 -14.87004375
28.99045563 234.15473938 -14.84400177
28.95485306 234.16909790 -14.84198380
29.00825119 234.21975708 -14.84316921
29.02074814 234.21299744 -14.83221245
28.99945450 234.18571472 -14.67413330
28.98099518 234.20526123 -14.90797806
28.95692253 234.16827393 -14.88425541
28.97152901 234.16700745 -14.86101055
28.98068428 234.20346069 -14.86971855
28.50680351 233.21630859 -16.13594818
28.50891495 233.22416687 -16.13834000
28.53135681 233.24043274 -16.13289070
28.55916405 233.23873901 -16.13648224
28.53279305 233.25256348 -16.12998772
28.53815269 233.23808289 -16.10555649
28.54115677 233.25338745 -16.10571861
28.55567741 233.25895691 -16.09814453
28.57053757 233.27395630 -16.11074638
28.56314468 233.25778198 -16.08013916
28.58154106 233.25517273 -16.07426834
28.57958031 233.25256348 -16.06513786
28.42542648 232.35919189 -16.13384056
28.40911674 232.36929321 -16.13347816
28.42736053 232.37356567 -16.13886833
28.38834953 232.35502625 -16.10013390
28.39840508 232.35539246 -16.10960197
28.40377808 232.36845398 -16.11073685
28.38249397 232.35484314 -16.08152771
28.40375519 232.34777832 -16.08941650
28.37166214 232.36773682 -16.08031082
28.39253235 232.36233521 -16.08933258
28.38085175 232.36053467 -16.05834389
28.37797546 232.36657715 -16.05690575
28.22655678 232.89762878 -16.12665749
28.24835014 232.89846802 -16.13629150
28.20239258 232.90263367 -16.10739708
28.22032738 232.90066528 -16.11433220
28.23892975 232.89837646 -16.11260605
28.17156029 232.90945435 -16.10633087
28.19456482 232.90884399 -16.10203552
28.26900864 232.92306519 -16.09449959
28.17420959 232.90591431 -16.07637978
28.18920517 232.90318298 -16.08636665
28.17458153 232.91192627 -16.07980347
28.18848038 232.90847778 -16.08298492
28.21335220 232.92346191 -16.09172821
28.14571381 232.89642334 -16.05966377
28.20012283 232.90798950 -16.06507111
28.14890862 232.91328430 -16.04826355
28.16531563 232.91304016 -16.05718994
28.14150238 232.90751648 -16.02854156
28.12844467 232.91320801 -16.01878738
28.14230347 232.91409302 -16.02790260
28.12756729 232.91978455 -15.99999523
28.13716125 232.91764832 -16.00637436
28.15263367 232.94554138 -15.99987030
28.14433289 232.94787598 -15.97878456
28.59782791 232.17562866 -16.12360764
28.56980705 232.19561768 -16.13526154
28.58437347 232.19107056 -16.13245773
28.56325150 232.20838928 -16.13784218
28.57447815 232.21891785 -16.14392853
28.56365204 232.24890137 -16.12896729
28.56461716 232.29788208 -16.12964821
28.57716942 232.29205322 -16.12776375
28.54490662 232.32717896 -16.13288116
28.55806732 232.35527039 -16.13384628
28.55363083 232.38003540 -16.13871384
28.54126549 232.40342712 -16.13577652
28.55982971 232.40374756 -16.13254166
28.53335953 232.42529297 -16.14256287
28.63338470 232.14816284 -16.09672546
28.56932068 232.17617798 -16.11793518
28.58481979 232.16986084 -16.10658455
28.60623169 232.16075134 -16.10590553
28.56639862 232.18496704 -16.10688019
28.58138466 232.18521118 -16.10628700
28.56964111 232.23155212 -16.11722183
28.58911896 232.25471497 -16.10348129
28.57285500 232.27282715 -16.10874176
28.58249474 232.27844238 -16.11370659
28.58298683 232.17112732 -16.08349609
28.58691216 232.22158813 -16.08618927
28.58716965 232.24342346 -16.08570099
28.59345627 232.21493530 -16.05867577
28.59819984 232.19593811 -16.03658104
28.61281395 232.18679810 -16.02634621
28.48952484 232.54040527 -16.14096642
28.50686646 232.54193115 -16.12862015
28.48296547 232.58297729 -16.13680267
28.49978638 232.58396912 -16.13537407
28.50840950 232.54060364 -16.10483551
28.52824593 232.53872681 -16.10119247
28.49333954 232.55648804 -16.10297203
28.50589371 232.54643250 -16.10989380
28.49825668 232.58000183 -16.11706734
28.51670647 232.53710938 -16.08292580
28.53009796 232.53686523 -16.07717896
28.51497459 232.56097412 -16.08458328
28.52737808 232.56857300 -16.06962585
28.53665924 232.51281738 -16.06221962
28.51725388 232.53262329 -16.05788994
28.53448868 232.53506470 -16.05389977
28.55666924 232.53259277 -16.05058479
28.50747681 232.54742432 -16.05907631
28.53213882 232.55790710 -16.05364037
28.49754143 232.57504272 -16.05689812
28.56548309 232.51181030 -16.01774406
28.54245186 232.53283691 -16.03518867
28.55781174 232.53059387 -16.02770424
28.53343964 232.56613159 -16.03234482
28.56525612 232.51330566 -16.00259590
28.58295250 232.50920105 -15.99820709
28.56359863 232.52720642 -16.00399780
28.58291245 232.52062988 -16.00527763
28.60181427 232.47264099 -15.97112179
28.56966400 232.51031494 -15.98747253
28.58542824 232.50425720 -15.97498131
28.60408401 232.50119019 -15.97445107
28.58337402 232.52020264 -15.97981930
28.58956528 232.48641968 -15.95564461
28.62469864 232.49079895 -15.93858147
28.59300041 232.50187683 -15.95422554
28.61238480 232.49563599 -15.95102215
28.58731651 232.55641174 -15.95643044
28.61101723 232.48779297 -15.92943096
28.62890434 232.48406982 -15.92304230
28.60572433 232.50427246 -15.92909813
28.59641647 232.53927612 -15.93231010
28.61422729 232.53323364 -15.91384506
28.57484627 232.54666138 -15.93001556
28.61762047 232.48631287 -15.90409660
28.63779259 232.48674011 -15.90238094
28.61485291 232.49740601 -15.90325356
28.58358574 232.53965759 -15.90364838
28.60396576 232.52578735 -15.91063976
28.63123894 232.52970886 -15.89557266
28.63666534 232.55072021 -15.89008522
28.64611626 232.51693726 -15.86130524
28.63086700 232.52368164 -15.87597942
28.64258194 232.51443481 -15.85714912
28.64497375 232.52166748 -15.83557796
28.65898323 232.52055359 -15.83477306
28.65808678 232.52392578 -15.81453896
28.16891289 232.64096069 -16.14787102
28.19134521 232.64422607 -16.14881516
28.18000031 232.65905762 -16.14858818
28.21740341 232.67164612 -16.14853477
28.20829010 232.70611572 -16.14774513
28.38213921 232.80014038 -16.14839554
28.30337334 232.85530090 -16.14742661
28.32142830 232.85250854 -16.14894676
28.12379456 232.57623291 -16.13123322
28.14069939 232.59033203 -16.12251663
28.15014076 232.61132812 -16.13157082
28.16507149 232.60818481 -16.12972641
28.15254784 232.62863159 -16.13759232
28.16867447 232.63406372 -16.13748932
28.17686272 232.65080261 -16.13181686
28.20050240 232.66661072 -16.13408661
28.21953392 232.66545105 -16.13116455
28.20166206 232.68486023 -16.13653183
28.21664810 232.68656921 -16.13694572
28.22069359 232.71542358 -16.13996124
28.23960876 232.71319580 -16.13057137
28.23178673 232.73558044 -16.14208794
28.24238205 232.74310303 -16.14073944
28.35480118 232.74613953 -16.12609482
28.25007057 232.76188660 -16.13979721
28.26403236 232.77496338 -16.14164352
28.36080933 232.76260376 -16.12847710
28.37448311 232.76844788 -16.13534355
28.26021576 232.78451538 -16.14048386
28.27360535 232.79118347 -16.13819313
28.37935448 232.78776550 -16.14228630
28.39908981 232.79602051 -16.14327431
28.28044128 232.81486511 -16.13507462
28.29124260 232.82043457 -16.13661766
28.28431892 232.83125305 -16.12873268
28.30220985 232.84071350 -16.13645744
28.32006836 232.84596252 -16.13553619
28.27961540 232.86962891 -16.14443970
28.31182480 232.86169434 -16.12084198
28.34507751 232.89811707 -16.12125397
28.38652039 232.91436768 -16.13319588
28.11051178 232.56886292 -16.09740829
28.13744736 232.56901550 -16.10128784
28.12095451 232.57664490 -16.10631371
28.14119911 232.58409119 -16.11632347
28.14588737 232.61204529 -16.10287094
28.19327927 232.64459229 -16.10051346
28.21187210 232.64630127 -16.09725189
28.20182037 232.65934753 -16.10755157
28.22154236 232.66401672 -16.10838127
28.20389175 232.68246460 -16.11479950
28.21518326 232.69966125 -16.11304855
28.22699165 232.70919800 -16.10933685
28.33800507 232.72131348 -16.10030746
28.34658432 232.71878052 -16.10155106
28.35085297 232.73863220 -16.11184311
28.36984062 232.73840332 -16.11595917
28.24759102 232.77177429 -16.11919785
28.34918976 232.75315857 -16.11886597
28.30112457 232.84478760 -16.10795021
28.27787781 232.85649109 -16.11444664
28.35813141 232.89335632 -16.10114288
28.38155174 232.90007019 -16.11750221
28.10315323 232.56864929 -16.08078575
28.11567497 232.56645203 -16.08640862
28.09898949 232.57530212 -16.08003998
28.11587334 232.58219910 -16.08587646
28.13466644 232.58403015 -16.07098007
28.19463348 232.63694763 -16.07975769
28.21114349 232.63812256 -16.08419800
28.19778633 232.66110229 -16.08364677
28.20746422 232.68731689 -16.08243561
28.21377373 232.67788696 -16.08843994
28.33339310 232.69395447 -16.07168579
28.33295441 232.70857239 -16.08513260
28.34510612 232.71427917 -16.08568954
28.25411606 232.79646301 -16.07946396
28.26644897 232.81764221 -16.07484055
28.28753281 232.84143066 -16.07829475
28.09552956 232.56481934 -16.06386566
28.09794807 232.57916260 -16.06193161
28.11329269 232.57209778 -16.04310989
28.14555359 232.59228516 -16.05632591
28.20008850 232.63101196 -16.05201530
28.19915581 232.66110229 -16.05979156
28.30975723 232.67016602 -16.04735756
28.32726669 232.66967773 -16.04986000
28.23455429 232.68740845 -16.06629753
28.32312584 232.68588257 -16.05882645
28.35374260 232.68344116 -16.05922699
28.12879181 232.59461975 -16.02739716
28.20772743 232.62045288 -16.02718735
28.22792816 232.61441040 -16.02448463
28.19987488 232.63259888 -16.02976608
28.21219444 232.63040161 -16.02870178
28.19563293 232.66384888 -16.03903961
28.21612167 232.67214966 -16.01751900
28.30354881 232.66073608 -16.02724838
28.30686569 232.67599487 -16.03493500
28.13483047 232.59689331 -16.01156616
28.20399475 232.61923218 -16.00752640
28.22212029 232.61753845 -16.00239372
28.26424408 232.62126160 -16.00498009
28.20128059 232.63693237 -16.00714302
28.21608543 232.62570190 -16.00537872
28.27708054 232.64062500 -15.99604702
28.31022453 232.64248657 -16.00533867
28.20963287 232.66137695 -16.00402451
28.22196579 232.65408325 -16.00581360
28.28003502 232.65216064 -16.00832367
28.29326820 232.65446472 -16.00658989
28.22579193 232.68145752 -15.99025059
28.22101212 232.62133789 -15.98606014
28.24337006 232.62019348 -15.96598053
28.20646667 232.62989807 -15.97704506
28.21421623 232.63453674 -15.98043346
28.25305748 232.63208008 -15.97280884
28.27084923 232.63285828 -15.97926044
28.21944809 232.65913391 -15.96850491
28.27534866 232.65072632 -15.97741318
28.23745346 232.62030029 -15.94936466
28.22646332 232.62933350 -15.94719887
28.24336052 232.62765503 -15.95559883
28.26713562 232.63534546 -15.96219444
28.24603271 232.64894104 -15.94944382
28.27745056 232.66276550 -15.95161915
28.20870209 232.60966492 -15.91286087
28.21814537 232.61547852 -15.92503357
28.23711395 232.61166382 -15.92462063
28.21875572 232.63044739 -15.92510509
28.24123383 232.63211060 -15.92802429
28.22960091 232.65419006 -15.93269825
28.25108147 232.65298462 -15.92651653
28.19935608 232.61100769 -15.90053177
28.21377945 232.60002136 -15.90748882
28.21507454 232.63182068 -15.89736366
28.24245834 232.66184998 -15.90398026
28.17885017 232.61132812 -15.87213898
28.19206238 232.60629272 -15.87297440
28.15507698 232.61326599 -15.84004593
28.16856575 232.60954285 -15.84842777
28.19084549 232.60894775 -15.84920502
28.17588425 232.63398743 -15.84201145
28.19627380 232.62452698 -15.84328842
28.15245819 232.61457825 -15.81956673
28.16493416 232.61254883 -15.82628345
28.14550591 232.62207031 -15.81056786
28.15193176 232.61889648 -15.79837418
28.16826057 232.61532593 -15.79767513
28.15328217 232.62411499 -15.79173374
28.16566086 232.63221741 -15.75961971
28.17596626 232.65802002 -15.74316406
28.78821182 232.76490784 -16.41361427
28.76040649 232.79368591 -16.39850235
28.78590775 232.79226685 -16.39749908
28.55886841 232.68315125 -16.30059624
28.58573341 232.68688965 -16.29045105
28.58063507 232.71652222 -16.27857971
28.92029572 232.40835571 -16.46398163
28.92106628 232.44885254 -16.44473267
28.92886543 232.44799805 -16.43187714
28.20691299 232.69424438 -16.17916489
28.21978378 232.69436646 -16.18604088
28.25282669 232.70587158 -16.15213394
27.69750214 233.58956909 -17.14176559
27.71981430 233.59945679 -17.14443970
27.73698807 233.61245728 -17.14544296
27.68062210 233.54847717 -17.11468506
27.68795776 233.57377625 -17.12310028
27.65783691 233.54617310 -17.09560394
27.66576767 233.56150818 -17.10776520
27.63768005 233.52275085 -17.06053543
27.65553856 233.52079773 -17.06830788
27.64353752 233.53767395 -17.07343483
27.63639259 233.52993774 -17.04090118
27.63913155 233.53292847 -17.05150795
27.63801575 233.52279663 -17.02928543
25.54484558 234.97418213 -14.95727253
25.54246712 235.00593567 -14.95791817
25.54708481 234.97366333 -14.94556618
29.15740013 236.49922180 -20.12811279
29.16434669 236.54231262 -20.13322639
29.17289352 236.54656982 -20.13615990
29.17147064 236.55664062 -20.12455750
29.17938614 236.56539917 -20.14176369
29.18170738 236.59039307 -20.12504005
29.21246338 236.64041138 -20.12858200
29.22730446 236.64923096 -20.12692261
29.22791672 236.65986633 -20.13533401
29.23975182 236.68626404 -20.12639809
29.25423622 236.69534302 -20.13375664
29.26038170 236.72055054 -20.13243484
29.24121857 236.74424744 -20.13620949
29.26898003 236.73826599 -20.14361191
29.14316177 236.49035645 -20.09999084
29.14290810 236.50267029 -20.10310745
29.15128517 236.50915527 -20.10867310
29.15955734 236.53582764 -20.11978722
29.16643715 236.55630493 -20.11823082
29.17610168 236.57080078 -20.11709404
29.18125916 236.58679199 -20.11795998
29.19285583 236.61029053 -20.11768150
29.20184326 236.61703491 -20.11518478
29.19686317 236.62606812 -20.11905098
29.20758629 236.63980103 -20.11661339
29.21770477 236.66012573 -20.11881256
29.23451996 236.67166138 -20.11791992
29.23577881 236.68663025 -20.12102509
29.26422119 236.67803955 -20.11328697
29.13935661 236.46664429 -20.07723999
29.15464783 236.46008301 -20.08365250
29.14292526 236.47998047 -20.08685303
29.14727402 236.47790527 -20.09225464
29.14032555 236.46055603 -20.06417656
29.15738678 236.45223999 -20.05043411
29.14232254 236.47105408 -20.06726837
29.01082230 236.89953613 -20.13021469
29.02757263 236.90103149 -20.11560059
29.01912498 236.94158936 -20.10387611
29.05788803 236.85516357 -20.14283752
29.07553673 236.85147095 -20.14166641
29.01156998 236.88278198 -20.13063240
29.02930450 236.87454224 -20.13533211
29.05035782 236.86511230 -20.13578033
29.08382607 236.86933899 -20.13516998
29.10263443 236.86656189 -20.14154816
28.98625183 236.91018677 -20.13103104
29.05686760 236.90933228 -20.13931274
29.08100700 236.90184021 -20.13690758
29.10583305 236.89202881 -20.14432144
29.00248718 236.92074585 -20.13598251
29.02855492 236.91838074 -20.13323784
29.05397606 236.91609192 -20.13472366
29.08562469 236.91711426 -20.14480591
28.98173523 236.93975830 -20.12501717
29.08784485 236.84930420 -20.11978149
29.01155663 236.88012695 -20.10939026
29.03111839 236.87385559 -20.11042595
29.05491829 236.87014771 -20.11254120
29.07670212 236.87387085 -20.11190987
29.09542847 236.88006592 -20.11449623
28.98175621 236.90696716 -20.10119438
29.00197792 236.89624023 -20.11317062
29.06089592 236.89505005 -20.10567284
29.07425499 236.89822388 -20.11408615
28.97986031 236.92677307 -20.10194778
29.00268936 236.92352295 -20.10919571
29.02904320 236.92439270 -20.11158562
29.05171967 236.91957092 -20.11351585
28.97231483 236.94921875 -20.10623169
28.92032814 237.24208069 -20.10591125
28.91886520 237.25808716 -20.11296463
29.11056519 236.85072327 -20.09305000
29.00662041 236.88372803 -20.08918762
29.02663612 236.88085938 -20.09040451
29.06209373 236.87438965 -20.08902359
29.07661629 236.86585999 -20.08371925
28.95838928 236.90592957 -20.07735443
28.97603989 236.89970398 -20.08557129
29.00247765 236.88919067 -20.08166504
29.02726746 236.89501953 -20.08314133
29.04998016 236.90576172 -20.08562469
28.93192101 236.92295837 -20.07671738
28.95652390 236.92462158 -20.08019257
28.97549820 236.92961121 -20.08728027
29.00590515 236.93168640 -20.08871841
29.03009605 236.92712402 -20.08592796
29.04974174 236.91600037 -20.09155083
28.93637466 236.94107056 -20.08637238
28.95543671 236.94013977 -20.07662201
28.97853661 236.94250488 -20.07983780
28.99992752 236.94387817 -20.08264351
28.93922615 237.18278503 -20.07224464
28.94264984 237.21650696 -20.07762909
28.91179657 237.24200439 -20.09779358
28.92055321 237.23268127 -20.08395004
29.10210228 236.84072876 -20.07012939
28.93077278 236.90881348 -20.04993820
28.95090675 236.90029907 -20.05841827
28.97687149 236.89291382 -20.05752373
29.00189209 236.89700317 -20.06058693
29.03059006 236.89700317 -20.06413651
28.90588951 236.93023682 -20.05100250
28.92807579 236.92607117 -20.05506325
28.94892883 236.92675781 -20.06499672
28.97339630 236.93606567 -20.06302834
29.01033401 236.93067932 -20.05900383
29.02388000 236.92361450 -20.06179619
28.92927742 236.94165039 -20.05694389
28.95020485 236.94259644 -20.05500221
28.97637749 236.94540405 -20.05908012
28.99508095 236.94367981 -20.06567764
28.93239975 237.19274902 -20.05513000
28.92494583 237.21235657 -20.05871201
28.95756912 236.86822510 -20.03521347
29.04380798 236.88027954 -20.04212952
28.88063431 236.90086365 -20.02129173
28.90119934 236.90608215 -20.02731133
28.92635155 236.90063477 -20.03487396
28.95131493 236.89660645 -20.03235245
28.97251892 236.89866638 -20.03572273
28.88081169 236.92141724 -20.02318001
28.89976883 236.92481995 -20.03055573
28.91846275 236.93235779 -20.03799438
28.95308495 236.93173218 -20.03111649
28.97522926 236.92492676 -20.03001785
28.99095917 236.91622925 -20.03452873
28.90260887 236.94253540 -20.03068924
28.92692184 236.94259644 -20.03323174
28.95107079 236.94778442 -20.03235626
28.97235680 236.94799805 -20.03204155
28.95675278 236.97314453 -20.03124809
28.96325111 237.04626465 -20.02081680
28.93573570 237.16557312 -20.02750397
28.94433022 237.16090393 -20.02898979
28.93352699 237.18533325 -20.03473473
28.92699623 237.20063782 -20.04080200
28.94088554 237.20538330 -20.04398346
28.95597076 236.88156128 -20.01520538
28.97822571 236.88102722 -19.99828720
28.87289619 236.90248108 -20.00758171
28.89883614 236.90037537 -20.00819778
28.92438126 236.89512634 -20.00853920
28.94223976 236.89474487 -20.00934029
28.96801376 236.90843201 -20.01688957
28.87351418 236.92547607 -20.00639343
28.89369011 236.93469238 -20.01495934
28.92886162 236.93438721 -20.00038147
28.94690514 236.92747498 -19.99905396
28.96952820 236.92861938 -20.01133728
28.88009644 236.94374084 -20.00017548
28.89987183 236.94418335 -20.00691795
28.92296028 236.94461060 -20.00980186
28.95237732 236.95423889 -20.01082802
28.96840858 236.95703125 -20.01385307
28.88242722 236.97140503 -20.00166893
28.91043091 236.98417664 -20.00100136
28.93329239 236.96643066 -20.01725960
28.95716667 236.98350525 -20.00756454
28.96846581 236.97404480 -20.01070976
28.93430138 237.01380920 -20.00170517
28.95995140 237.00773621 -20.00156403
28.96756554 236.99882507 -20.00475693
28.96136856 237.02926636 -19.99965286
28.96745110 237.02836609 -20.00671005
28.95939064 237.05302429 -19.99582291
28.95689392 237.08367920 -19.99908447
28.96582413 237.07615662 -20.00575256
28.95135117 237.10925293 -20.00340652
28.94725227 237.13226318 -20.01049805
28.94249153 237.15522766 -20.01532745
28.90102386 236.87332153 -19.97095108
28.92873573 236.88146973 -19.97804260
28.94464684 236.87802124 -19.97554588
28.87563133 236.90324402 -19.98466873
28.90007210 236.90003967 -19.98511505
28.92844582 236.89434814 -19.98495483
28.94751930 236.89762878 -19.97716331
28.96776962 236.89062500 -19.98844147
28.85745621 236.92739868 -19.97373772
28.86709976 236.92541504 -19.98429871
28.92541122 236.92857361 -19.97779274
28.94677925 236.92480469 -19.98818207
28.85228539 236.94664001 -19.97244072
28.87293625 236.94969177 -19.98125076
28.89839554 236.95245361 -19.98215485
28.91915131 236.95019531 -19.98686600
28.94764709 236.93843079 -19.98345947
28.85359192 236.96765137 -19.96961212
28.86733246 236.96839905 -19.97830391
28.92200470 236.96807861 -19.98097992
28.95891953 237.01220703 -19.99341965
28.97677803 237.01202393 -19.99102020
28.96087265 237.02987671 -19.98993301
28.97580719 237.02522278 -19.98658752
28.95943832 237.05535889 -19.99129105
28.95534706 237.07644653 -19.99121284
28.94783974 237.10127258 -19.99208450
28.89551735 236.85655212 -19.94701195
28.89986038 236.86857605 -19.95194817
28.92011070 236.87376404 -19.96395493
28.94646645 236.87170410 -19.95539474
28.84184074 236.89472961 -19.94294357
28.87802315 236.91026306 -19.95866776
28.89739990 236.90187073 -19.95918274
28.92418861 236.89138794 -19.95411110
28.82439995 236.93554688 -19.95457458
28.84768295 236.92903137 -19.95406914
28.87170410 236.91737366 -19.95712280
28.90137482 236.92822266 -19.95656776
28.91994095 236.92350769 -19.95773888
28.94183350 236.92776489 -19.96761131
28.82779503 236.95364380 -19.94904137
28.84540939 236.95252991 -19.95935440
28.87493134 236.95933533 -19.95639992
28.89686775 236.95429993 -19.95633698
28.92138863 236.93943787 -19.95888710
28.82288933 236.97315979 -19.94824028
28.80663681 236.99157715 -19.94765472
28.86793327 236.75836182 -19.91661644
28.86877251 236.79592896 -19.92469597
28.86975098 236.82601929 -19.91954041
28.87850952 236.84332275 -19.92440224
28.89221573 236.85008240 -19.93030167
28.84307480 236.87344360 -19.91641808
28.87168503 236.86422729 -19.91703033
28.90386200 236.87847900 -19.92830849
28.95122910 236.86346436 -19.94091797
28.90424347 236.89553833 -19.93210602
28.91689682 236.91067505 -19.94083786
28.82974243 236.93440247 -19.92408752
28.84496307 236.92857361 -19.92875862
28.86995316 236.91807556 -19.93040466
28.89253616 236.92610168 -19.92993164
28.81796837 236.94944763 -19.93222809
28.84211922 236.93882751 -19.91664696
28.87984657 236.95788574 -19.92853546
28.89043236 236.94714355 -19.93785667
28.77166367 236.98477173 -19.91878891
28.79745483 236.97627258 -19.92185402
28.81793022 236.97969055 -19.92905045
28.84663773 236.98002625 -19.92803383
28.89235687 236.96580505 -19.92871666
28.75537109 237.00717163 -19.93413544
28.76817703 236.99877930 -19.92000008
28.79514313 237.00057983 -19.92424965
28.81670952 236.99217224 -19.92036247
28.83964539 236.99174500 -19.92636108
28.86643982 236.72052002 -19.89319992
28.86619949 236.74066162 -19.89645767
28.86678886 236.76724243 -19.90512657
28.90329552 236.76280212 -19.90290451
28.91808319 236.77795410 -19.89065170
28.86605835 236.79096985 -19.91205406
28.85767746 236.82934570 -19.91138840
28.87185287 236.82139587 -19.90400314
28.84907532 236.85054016 -19.91025734
28.87685204 236.83863831 -19.91082764
28.89208221 236.84552002 -19.90294838
28.79943275 236.87901306 -19.89863014
28.82128716 236.87089539 -19.90039062
28.84287071 236.86613464 -19.90752792
28.92346191 236.87322998 -19.90888214
28.80069923 236.89128113 -19.89321327
28.81126213 236.89916992 -19.89426422
28.84176636 236.90447998 -19.90535545
28.90060425 236.90490723 -19.90538406
28.92482758 236.90101624 -19.90730667
28.82826424 236.93331909 -19.90559006
28.84306717 236.93193054 -19.90621376
28.88079071 236.92431641 -19.89760971
28.92328644 236.91624451 -19.91036034
28.77378464 236.95968628 -19.89952469
28.79564285 236.94911194 -19.90216827
28.81957626 236.94169617 -19.90217209
28.85355949 236.95610046 -19.90131378
28.87013817 236.95037842 -19.90760612
28.72352982 236.97985840 -19.89509201
28.75026321 236.98124695 -19.89408493
28.76843834 236.97833252 -19.90381432
28.79159927 236.97923279 -19.91315079
28.82331848 236.98892212 -19.90290260
28.84606552 236.97941589 -19.90376472
28.72312927 237.00476074 -19.89816475
28.74463272 237.00099182 -19.89591789
28.76903343 236.99992371 -19.89716339
28.79413414 236.99739075 -19.90238953
28.81798172 236.99359131 -19.90020370
28.85683823 236.99160767 -19.91223526
28.73847961 237.01986694 -19.90029335
28.77543449 237.01678467 -19.89170837
28.91680145 236.60142517 -19.87197495
28.86237907 236.70202637 -19.86994171
28.85935593 236.71759033 -19.88201141
28.86516571 236.71665955 -19.87630844
28.85941696 236.74163818 -19.88921356
28.87266159 236.74118042 -19.88374710
28.89074326 236.74118042 -19.86495209
28.87767410 236.77227783 -19.87059402
28.89478874 236.77423096 -19.87079048
28.88037109 236.79374695 -19.87548828
28.88067245 236.81652832 -19.88040924
28.88808823 236.82353210 -19.88459778
28.77803802 236.88005066 -19.86635590
28.79384613 236.87863159 -19.88128090
28.76990128 236.89923096 -19.86936188
28.78202248 236.88638306 -19.87524796
28.81317902 236.90524292 -19.88130951
28.88459206 236.90954590 -19.87522507
28.89596367 236.90887451 -19.88889313
28.78531647 236.92784119 -19.87711334
28.75018120 236.96301270 -19.87046432
28.76925087 236.95545959 -19.87629890
28.79524994 236.95423889 -19.87396622
28.81302643 236.95230103 -19.87933731
28.71601868 236.98370361 -19.86963272
28.74006653 236.97608948 -19.87913704
28.75793076 236.96665955 -19.88132095
28.79790306 236.97428894 -19.87333298
28.81992149 236.97778320 -19.87051392
28.83569336 236.97329712 -19.88642693
28.69669533 237.00857544 -19.86981392
28.71706390 237.00303650 -19.87655830
28.74142456 237.00770569 -19.88109970
28.76938629 237.00816345 -19.87830544
28.79362297 237.00286865 -19.87703896
28.81682777 236.99479675 -19.88415337
28.66699219 237.02742004 -19.86708450
28.69715691 237.02745056 -19.86614037
28.71925163 237.02000427 -19.86838150
28.73710251 237.01980591 -19.87515259
28.76119041 237.01879883 -19.87241173
28.63019180 237.05227661 -19.86452103
28.92794418 236.43664551 -19.84729385
28.92655754 236.45864868 -19.84133720
28.92395210 236.47770691 -19.83854675
28.95052147 236.48657227 -19.84318161
28.91604233 236.50714111 -19.84127998
28.91644478 236.54135132 -19.84057236
28.90995789 236.56414795 -19.85957718
28.92041779 236.55577087 -19.85792732
28.94002151 236.55012512 -19.84067917
28.90965652 236.58676147 -19.84912109
28.91433334 236.58230591 -19.85313225
28.90034103 236.64288330 -19.84098434
28.89642715 236.66862488 -19.84067535
28.85880852 236.68864441 -19.84532928
28.86860466 236.69291687 -19.84723473
28.89031029 236.69482422 -19.84457779
28.85501862 236.70504761 -19.85072517
28.87442017 236.71281433 -19.85186386
28.88853836 236.71118164 -19.84695625
28.88262939 236.74783325 -19.85399055
28.89039993 236.74006653 -19.85361481
28.88315582 236.76713562 -19.85437393
28.89259338 236.75955200 -19.84237099
28.76818848 236.88398743 -19.85464859
28.75045586 236.89958191 -19.84262466
28.76292229 236.88948059 -19.84952164
28.73174286 236.92326355 -19.84155655
28.87825775 236.93045044 -19.85024261
28.89601326 236.93055725 -19.85267830
28.71455193 236.95690918 -19.84958076
28.74905396 236.96235657 -19.86000824
28.80693054 236.96322632 -19.85829353
28.82193756 236.96333313 -19.85036469
28.85436249 236.94087219 -19.85598183
28.89893913 236.94291687 -19.85609627
28.69551659 236.98384094 -19.84769440
28.71732521 236.97619629 -19.85006523
28.74432564 236.97128296 -19.84804344
28.76611710 236.98077393 -19.84757996
28.80047607 236.97886658 -19.85696411
28.83055878 236.97344971 -19.86296463
28.67011452 237.00471497 -19.84499168
28.68793678 237.00221252 -19.85377693
28.70488358 236.99336243 -19.86298370
28.74559593 237.00985718 -19.85210037
28.76844025 237.00666809 -19.85239410
28.79397202 236.99256897 -19.85844612
28.64322281 237.02423096 -19.84581566
28.66561127 237.02462769 -19.84559059
28.68961334 237.02804565 -19.84966469
28.71739006 237.02671814 -19.84867477
28.74297142 237.01943970 -19.85200500
28.63423157 237.04708862 -19.84152603
28.66713905 237.04606628 -19.84566498
28.68816376 237.04756165 -19.85503006
28.91591644 236.38465881 -19.81470871
28.92284966 236.41302490 -19.81816864
28.95265198 236.40075684 -19.82210159
28.92586899 236.43185425 -19.83073997
28.93856239 236.43721008 -19.81915283
28.90618896 236.46336365 -19.81648445
28.92407227 236.45886230 -19.83489609
28.92274666 236.48423767 -19.83237648
28.91185570 236.50994873 -19.83251572
28.91712952 236.50854492 -19.83056450
28.90953064 236.54708862 -19.82556534
28.91749001 236.53634644 -19.82929420
28.90852928 236.56549072 -19.82951164
28.91704178 236.55099487 -19.83141327
28.90650177 236.58621216 -19.82938194
28.91846848 236.58592224 -19.82854080
28.90388489 236.61369324 -19.82925034
28.92011261 236.60481262 -19.83275223
28.89781189 236.63952637 -19.83041954
28.91597748 236.63807678 -19.81510544
28.84842491 236.67240906 -19.81717682
28.89457130 236.66221619 -19.83506012
28.85223579 236.68122864 -19.82474899
28.86886215 236.68508911 -19.82539940
28.89085197 236.68698120 -19.83211517
28.88428879 236.70698547 -19.83739471
28.88722038 236.70983887 -19.83382034
28.74389839 236.90176392 -19.82978249
28.69127655 236.93615723 -19.81510925
28.72424698 236.92453003 -19.81585503
28.92471886 236.92259216 -19.83751678
28.69865799 236.94807434 -19.82358360
28.71255112 236.95301819 -19.82093620
28.89508820 236.94688416 -19.83019447
28.67424393 236.98278809 -19.82355309
28.69231224 236.98185730 -19.82886124
28.71251488 236.97578430 -19.82172012
28.73600578 236.98062134 -19.83193207
28.64465523 237.01020813 -19.82364464
28.66286278 237.00054932 -19.82686234
28.69324112 237.00289917 -19.81827927
28.72635078 236.99954224 -19.81696701
28.74651146 237.00602722 -19.83391571
28.76238632 236.99980164 -19.83356094
28.57504463 237.03265381 -19.82219887
28.62022591 237.03244019 -19.81623459
28.63854599 237.02845764 -19.82559204
28.66344833 237.03321838 -19.83210754
28.69280624 237.03485107 -19.82459831
28.71523666 237.03047180 -19.83102036
28.73318481 237.01893616 -19.82818604
28.59090424 237.05442810 -19.81879425
28.61456108 237.05514526 -19.82093048
28.63986969 237.04670715 -19.81722260
28.66615486 237.04702759 -19.82357025
28.68392181 237.04232788 -19.83151245
28.70419312 237.05458069 -19.82991791
28.57242966 237.06925964 -19.81369019
28.91087723 236.38798523 -19.79169846
28.91856003 236.38635254 -19.79059792
28.91989708 236.39965820 -19.80306816
28.91641998 236.48010254 -19.80554962
28.90222931 236.61254883 -19.80066872
28.83383369 236.66697693 -19.79556465
28.84272957 236.66921997 -19.80330849
28.87511063 236.66549683 -19.79649162
28.88185120 236.68058777 -19.80752563
28.88787651 236.68122864 -19.80488014
28.68858528 236.93797302 -19.79805374
28.73060989 236.92987061 -19.80720329
28.67763329 236.94073486 -19.79084778
28.69101906 236.94352722 -19.80211449
28.71350861 236.94502258 -19.80452347
28.68866158 236.97978210 -19.80382729
28.71626282 236.98130798 -19.80225372
28.61770058 237.01362610 -19.79756737
28.63787651 237.00662231 -19.79975700
28.66502762 236.99868774 -19.79942703
28.68738747 236.99592590 -19.80315018
28.71178627 237.00260925 -19.80267143
