27.388947 249.04314 -9.8190737
27.413607 249.04668 -9.8233109
27.153927 249.06003 -9.8032837
27.172981 249.05847 -9.8062344
27.209238 249.06445 -9.816823
27.396137 249.06482 -9.8164282
27.410793 249.07027 -9.8096151
27.205627 249.09691 -9.8037109
27.224796 249.0817 -9.8177462
27.400955 249.09286 -9.8100739
27.43532 249.0928 -9.8023434
27.407555 249.10919 -9.8098269
28.436523 247.96198 -9.7847519
28.450716 247.94891 -9.7815266
28.471699 247.95334 -9.7785578
28.41749 247.9846 -9.7980862
28.433569 247.98358 -9.7970276
28.448112 247.97644 -9.7870865
28.07198 248.26059 -9.7845411
28.086853 248.25476 -9.7937307
28.070255 248.28401 -9.7933245
28.089741 248.27786 -9.7885075
28.069103 248.30777 -9.7812214
28.087032 248.31247 -9.791708
28.049574 248.33624 -9.7976084
28.058628 248.32945 -9.7963772
28.19721 248.3455 -9.7877474
28.219015 248.33647 -9.7798576
28.174965 248.36292 -9.7938175
28.197477 248.37292 -9.7880573
28.224241 248.36926 -9.7814646
28.239716 248.37102 -9.7893877
27.990446 248.40373 -9.7944145
28.011112 248.40251 -9.7908344
28.183075 248.39445 -9.7987499
28.193943 248.38705 -9.7908287
28.232927 248.3905 -9.7904701
28.239132 248.39876 -9.7933693
27.975903 248.41858 -9.7881889
27.989531 248.42154 -9.7861319
28.014671 248.42789 -9.7819481
28.033951 248.42163 -9.7920437
28.638256 248.4917 -9.7776604
28.661911 248.5051 -9.7893877
28.646385 248.53259 -9.8010244
28.657812 248.52914 -9.7834129
27.519974 248.55515 -9.7851868
27.54431 248.55652 -9.7925549
27.565372 248.55449 -9.786376
28.651489 248.53554 -9.8005924
27.497604 248.56818 -9.7793369
27.524696 248.57231 -9.7846031
27.547155 248.57292 -9.7933197
27.571266 248.56161 -9.7924318
27.839802 248.63031 -9.7876263
27.852932 248.62976 -9.7861462
27.839745 248.65375 -9.792594
27.847647 248.63837 -9.7765331
27.889904 248.65103 -9.7875786
27.919714 248.65771 -9.7948008
27.935915 248.6573 -9.7909374
27.960438 248.65866 -9.7776165
27.990128 248.64937 -9.7840481
27.705101 248.68713 -9.8001041
27.727238 248.68149 -9.794426
27.845585 248.66632 -9.7862682
27.879278 248.68944 -9.7941599
27.914326 248.67871 -9.7956009
27.936092 248.68085 -9.7851448
27.964207 248.677 -9.7873907
27.991093 248.68057 -9.7771244
27.68581 248.70427 -9.7899494
27.70579 248.70032 -9.7864714
27.722963 248.70268 -9.7942915
27.745543 248.70941 -9.7908878
27.900856 248.70323 -9.7813015
27.944138 248.69328 -9.7832432
27.957886 248.70215 -9.7820349
28.00444 248.71109 -9.7778606
27.685759 248.72151 -9.7806416
27.708237 248.7247 -9.783247
27.843081 248.73622 -9.7948275
27.86079 248.73485 -9.7979679
27.877941 248.72917 -9.797781
27.898308 248.73444 -9.7982864
27.813362 248.74733 -9.7986183
27.840475 248.76187 -9.785532
27.858587 248.75409 -9.7906408
27.88183 248.75508 -9.7878656
27.904358 248.76108 -9.7826748
27.930569 248.76183 -9.789669
27.951679 248.76517 -9.7998543
27.839361 248.78809 -9.7849636
27.861187 248.77797 -9.7853289
27.885468 248.77345 -9.7861595
27.358391 248.86372 -9.7861242
27.317024 248.88766 -9.786726
27.33972 248.88972 -9.792738
27.363049 248.88594 -9.7918806
27.392185 248.87784 -9.7966557
27.343355 248.90108 -9.7878819
27.733669 248.97389 -9.7980633
27.75639 248.97079 -9.7944078
27.075968 249.00154 -9.7828159
27.735561 248.98425 -9.7918501
27.75412 248.99622 -9.7937889
27.024414 249.0199 -9.7776012
27.055128 249.01854 -9.7792473
27.078787 249.01518 -9.7829027
27.109415 249.02161 -9.7846823
27.13287 249.01416 -9.792325
27.163906 249.02539 -9.7856255
27.182243 249.02048 -9.7972326
27.208138 249.01579 -9.7871742
27.228895 249.01424 -9.7892599
27.255306 249.01558 -9.7985477
27.731915 249.009 -9.7824774
27.751827 249.00398 -9.7997417
27.054678 249.03702 -9.7813339
27.080246 249.03157 -9.781064
27.106956 249.03806 -9.7849321
27.126238 249.04077 -9.7869759
27.157152 249.04019 -9.7919846
27.179579 249.04118 -9.7918196
27.203674 249.04227 -9.7902288
27.239685 249.03781 -9.7945805
27.397362 249.03723 -9.7916832
27.405577 249.04782 -9.7831211
27.128994 249.05789 -9.7837667
27.156313 249.06332 -9.7922239
27.183872 249.05853 -9.792181
27.231003 249.07881 -9.7987385
27.401348 249.06418 -9.7927246
27.410414 249.06021 -9.7918577
27.117964 249.0806 -9.7761211
27.134285 249.08035 -9.7827845
27.192173 249.09465 -9.789854
27.204346 249.09412 -9.787487
27.399216 249.10297 -9.7982635
27.207932 249.11172 -9.7778711
28.475956 247.925 -9.7554522
28.463238 247.95439 -9.758297
28.477646 247.9519 -9.7535982
28.499317 247.9445 -9.7583275
28.455063 247.97151 -9.7685032
28.472281 247.96535 -9.764328
28.072052 248.26195 -9.7611103
28.08753 248.26108 -9.7698679
28.068695 248.28345 -9.7593994
28.082975 248.2775 -9.7563848
28.069059 248.31059 -9.7624197
28.091871 248.30937 -9.7586212
28.11573 248.30789 -9.7558556
28.224289 248.34103 -9.7739811
28.223587 248.35831 -9.7724047
27.987152 248.39679 -9.7689304
28.018429 248.39519 -9.7634687
28.193035 248.38383 -9.7684212
28.223648 248.37883 -9.7573709
27.991713 248.4157 -9.7582092
28.011749 248.40672 -9.7724838
28.180779 248.41461 -9.7714539
28.200455 248.40834 -9.7583036
28.214928 248.42804 -9.7652626
28.668655 248.50658 -9.7630634
28.665367 248.53091 -9.7611141
28.679443 248.528 -9.7503633
27.500937 248.55626 -9.7728662
27.514576 248.55722 -9.7700424
27.49851 248.57211 -9.7590561
27.519932 248.57103 -9.7637691
27.535107 248.56007 -9.7730312
27.907879 248.58098 -9.7708683
27.492634 248.59715 -9.7520542
27.897331 248.60745 -9.7545414
27.839405 248.63248 -9.7585297
27.95842 248.63484 -9.7619514
27.979946 248.63644 -9.7521133
27.840664 248.65805 -9.7622604
27.946081 248.66025 -9.7627869
27.962723 248.65236 -9.7638702
27.71199 248.68094 -9.7584667
27.833359 248.66537 -9.7693329
27.939524 248.67642 -9.7692156
27.961767 248.67975 -9.7695837
27.985107 248.67673 -9.7591686
27.680157 248.71313 -9.7701235
27.702984 248.70822 -9.7626343
27.732105 248.71472 -9.7610397
27.97226 248.696 -9.773118
27.977673 248.70808 -9.7706509
28.012123 248.70401 -9.7660913
27.68222 248.72876 -9.7583065
27.700682 248.73044 -9.7572861
27.73703 248.7193 -9.7531013
27.862297 248.73831 -9.7632046
27.935841 248.72615 -9.764286
27.985622 248.71609 -9.7593346
28.009857 248.73685 -9.7527065
28.039211 248.72705 -9.7541227
27.684238 248.74638 -9.7545586
27.693352 248.74452 -9.7571964
27.860718 248.75459 -9.763176
27.890156 248.76292 -9.769268
27.912544 248.76135 -9.7663021
27.932383 248.74937 -9.7577763
27.838999 248.78592 -9.7692566
27.856567 248.78702 -9.7701635
27.894453 248.77962 -9.7753506
27.933327 248.78714 -9.7618504
27.955671 248.79211 -9.7635803
27.836447 248.80832 -9.7596951
27.854208 248.80591 -9.7624226
27.885399 248.79475 -9.7694473
27.915718 248.79445 -9.7513905
27.840837 248.82849 -9.7515507
27.84877 248.8228 -9.7602768
27.358475 248.8989 -9.7723818
26.929291 248.98891 -9.772398
27.134506 248.99376 -9.760704
27.721888 248.99007 -9.769208
26.950829 249.00331 -9.764986
27.007114 249.01627 -9.7638083
27.026884 249.01817 -9.7663012
27.052794 249.01819 -9.7677021
27.074482 249.01474 -9.7695847
27.130337 249.02242 -9.751236
27.161978 249.02641 -9.7643118
27.182484 249.02159 -9.7674913
27.210697 249.01605 -9.7655449
27.235516 249.02286 -9.775034
27.721569 249.0173 -9.7652969
26.942686 249.0374 -9.7593327
26.972147 249.03386 -9.7687416
27.004053 249.03386 -9.7684879
27.026413 249.03044 -9.7734137
27.080271 249.04639 -9.7749262
27.111641 249.05188 -9.7631416
27.130913 249.04164 -9.7681961
27.161463 249.03728 -9.7674351
27.185293 249.04546 -9.7596436
27.215958 249.03897 -9.7646656
27.232128 249.05353 -9.7668123
27.104919 249.06604 -9.7601261
27.132055 249.06023 -9.7663822
27.163719 249.07326 -9.7719717
27.181629 249.05678 -9.7559404
27.101185 249.08601 -9.7592859
27.13311 249.0853 -9.7716093
27.206627 249.09654 -9.772007
27.191422 249.11937 -9.7589722
27.204824 249.11852 -9.7641964
27.228857 249.112 -9.7544403
27.191523 249.13254 -9.7517681
27.205605 249.14938 -9.7577362
27.204037 249.16519 -9.7546558
28.483566 247.9257 -9.7325563
28.468523 247.94608 -9.7388382
28.483255 247.94742 -9.7420807
28.061747 248.241 -9.7415504
28.049845 248.24998 -9.7255268
28.064154 248.26115 -9.7311649
28.090864 248.26468 -9.733511
28.122299 248.25963 -9.7388935
28.064133 248.28368 -9.7314978
28.083431 248.28647 -9.7378531
28.129099 248.29117 -9.7435284
28.064297 248.31119 -9.7342806
28.085461 248.31732 -9.745656
28.128559 248.31384 -9.7384338
27.973011 248.37097 -9.7293587
27.999184 248.37564 -9.7314405
27.968706 248.40005 -9.7393465
28.023388 248.39481 -9.7315178
28.223282 248.38716 -9.7487059
27.966578 248.41173 -9.7354183
28.205921 248.42902 -9.7436218
28.214437 248.4135 -9.7365093
28.216877 248.43932 -9.7268381
28.248142 248.44022 -9.7403278
28.272053 248.45132 -9.7312241
28.687202 248.50427 -9.727129
28.685827 248.51714 -9.7304754
28.682631 248.5367 -9.7304983
28.71608 248.53491 -9.7361794
27.473869 248.57701 -9.7380438
27.492487 248.5712 -9.7381763
27.512943 248.57336 -9.7424793
27.907681 248.57787 -9.7312393
27.841471 248.63156 -9.7373743
27.849663 248.62582 -9.7298203
27.885241 248.62553 -9.7414274
27.840479 248.65222 -9.7398977
27.852646 248.65115 -9.7402391
27.964928 248.64636 -9.7483177
27.704304 248.68364 -9.7471037
27.955101 248.672 -9.7477102
27.707001 248.70232 -9.7299614
27.730888 248.70767 -9.7454205
27.65797 248.73502 -9.7322416
27.684507 248.72798 -9.735404
27.701645 248.72937 -9.734024
28.016258 248.72717 -9.7426262
28.028906 248.73952 -9.7338123
28.063854 248.7383 -9.7328587
27.683376 248.75278 -9.7296438
27.697613 248.74944 -9.7360382
28.020853 248.7442 -9.7394238
28.042816 248.75203 -9.7312469
28.058533 248.76273 -9.7248421
27.853821 248.78391 -9.7420368
27.914078 248.78401 -9.7372875
27.924355 248.78845 -9.7470303
28.042313 248.77315 -9.7245331
28.071709 248.776 -9.7329206
27.839512 248.80719 -9.7450037
27.85146 248.81766 -9.7374372
27.92025 248.8103 -9.7377663
27.935368 248.80453 -9.7314825
27.836832 248.82822 -9.7334814
27.86595 248.82504 -9.7465363
27.876226 248.83311 -9.7338161
27.913794 248.8226 -9.7311916
27.936275 248.83643 -9.7276783
27.977097 248.8364 -9.7286739
27.855549 248.8497 -9.7264662
27.96524 248.8506 -9.7329712
26.978218 249.00945 -9.7341137
26.997787 249.01534 -9.7363682
27.1334 249.01765 -9.7359486
27.154957 249.02156 -9.7381458
27.183958 249.01933 -9.7363071
27.217052 249.02222 -9.7270813
27.225264 249.02251 -9.7284899
27.252781 249.01962 -9.7418213
27.137154 249.03384 -9.7414112
27.153866 249.03398 -9.7375917
27.180595 249.04173 -9.7352715
27.198689 249.03336 -9.7455845
27.059422 249.07149 -9.7277575
27.079918 249.06931 -9.7384796
27.185009 249.05609 -9.7303295
27.200455 249.05713 -9.7357483
27.063005 249.09254 -9.7250032
27.073584 249.08936 -9.730135
27.109268 249.09271 -9.7433128
27.060146 249.11328 -9.7297659
27.158424 249.11629 -9.7446594
27.176367 249.12279 -9.7444162
27.200085 249.12907 -9.7432823
27.168859 249.14536 -9.7334824
27.182306 249.14627 -9.740715
27.207331 249.14352 -9.7483711
27.233173 249.1391 -9.7429247
27.175806 249.17233 -9.7302265
28.500549 247.92412 -9.7100544
28.489483 247.94312 -9.7196121
28.504007 247.94086 -9.7128515
28.053659 248.23241 -9.7000256
28.060572 248.23621 -9.7051592
28.048147 248.2494 -9.7143202
28.065639 248.25749 -9.7128019
28.086842 248.26457 -9.7021847
28.111263 248.26352 -9.7015076
28.134113 248.25977 -9.6994553
28.063919 248.28207 -9.7081127
28.086826 248.28728 -9.707099
28.121399 248.29022 -9.711339
28.137844 248.29185 -9.7049026
28.078632 248.30765 -9.7187338
28.088568 248.31314 -9.7184181
27.9804 248.37254 -9.7070351
27.964735 248.39542 -9.7054033
27.982269 248.40315 -9.7188358
28.223715 248.42603 -9.713871
28.207043 248.43228 -9.7219677
28.219524 248.44795 -9.7125645
28.222296 248.46614 -9.7030325
28.720654 248.47783 -9.7212067
28.226793 248.4874 -9.7002735
28.693926 248.50696 -9.7137184
28.694748 248.51999 -9.7125921
28.692564 248.53784 -9.7069149
27.448235 248.57285 -9.7062569
27.468113 248.57661 -9.7136345
27.48333 248.5759 -9.7092056
27.450922 248.59361 -9.7062063
27.4674 248.59973 -9.71492
27.907667 248.5943 -9.7152119
27.961258 248.59131 -9.6989307
27.842159 248.62019 -9.7176228
27.855362 248.63036 -9.7050467
27.839994 248.65115 -9.7128954
27.852797 248.64914 -9.7091064
27.846695 248.66457 -9.7112846
27.677612 248.73393 -9.7079611
27.702854 248.73392 -9.7118635
27.73311 248.72574 -9.7156439
27.745417 248.72592 -9.7239113
28.039738 248.7258 -9.713932
27.679649 248.7532 -9.7080898
27.699659 248.75171 -9.710331
27.729994 248.75291 -9.7154264
28.038755 248.76166 -9.7233448
28.067785 248.76024 -9.7189846
28.111052 248.76393 -9.7223778
27.953184 248.79306 -9.7047205
28.04524 248.77509 -9.701108
28.075956 248.77731 -9.7134457
28.092552 248.77721 -9.7077579
28.124146 248.77454 -9.7024412
27.727497 248.7951 -9.6984768
27.919765 248.80733 -9.7096844
27.937231 248.80998 -9.712636
27.9608 248.81006 -9.7098837
27.832367 248.83559 -9.7145424
27.854866 248.83586 -9.7103844
27.921825 248.82509 -9.7011051
27.959639 248.82901 -9.7148809
27.833862 248.85709 -9.705039
27.857861 248.85269 -9.7097435
27.128819 249.01567 -9.7199917
27.166809 249.01813 -9.7201614
27.204178 249.02469 -9.7109528
27.183201 249.03935 -9.7194023
27.206173 249.04625 -9.7045383
27.058397 249.07568 -9.7170038
27.077663 249.07724 -9.7160778
27.108534 249.07953 -9.7158661
27.181358 249.0565 -9.7221107
27.036488 249.0813 -9.6984386
27.055073 249.08983 -9.7116461
27.095798 249.08495 -9.7104301
27.057442 249.11453 -9.7104244
27.219547 249.15291 -9.7094593
27.160992 249.16751 -9.7202873
27.174726 249.1718 -9.7181187
28.530029 247.89328 -9.6778069
28.512226 247.92888 -9.688324
28.530087 247.92862 -9.6784821
28.06773 248.19308 -9.6921759
28.06547 248.21265 -9.67871
28.088047 248.20853 -9.6906929
28.06732 248.22826 -9.6877661
28.104324 248.22618 -9.6722841
28.070915 248.26724 -9.6893635
28.092888 248.26324 -9.6805429
28.072937 248.28702 -9.6836109
28.08564 248.28647 -9.6810417
28.127439 248.28418 -9.6909332
28.142775 248.28625 -9.6849689
28.077808 248.31094 -9.6894941
28.091162 248.31294 -9.681818
28.131355 248.30896 -9.6961184
28.170481 248.30072 -9.6931305
27.957706 248.38142 -9.6961536
28.226677 248.44731 -9.6797199
28.204128 248.47519 -9.6824617
28.225098 248.4687 -9.6907444
28.244286 248.46457 -9.6763878
28.206501 248.48642 -9.681489
28.217566 248.49202 -9.6838732
28.217957 248.51266 -9.6770382
27.425884 248.58162 -9.6742992
27.440361 248.57646 -9.6845207
27.459171 248.58266 -9.6967163
27.955349 248.58287 -9.6874294
27.423281 248.60178 -9.675725
27.439846 248.59723 -9.6852922
27.47023 248.59064 -9.6879768
27.847757 248.60489 -9.678072
27.88275 248.60114 -9.6842699
27.913918 248.60745 -9.6927223
27.931845 248.5946 -9.6722002
27.877251 248.6167 -9.6846285
27.843781 248.64828 -9.6876183
27.858044 248.64075 -9.6850624
27.837105 248.66466 -9.6963902
27.849539 248.67784 -9.6868172
27.668049 248.73125 -9.6900959
27.714817 248.72314 -9.6812859
27.727489 248.73254 -9.6735849
27.675922 248.75607 -9.6848974
27.702427 248.75313 -9.6846161
28.104115 248.75948 -9.6951122
28.123905 248.76685 -9.6816978
27.678448 248.78162 -9.6758728
27.697729 248.77834 -9.6811867
27.72794 248.77255 -9.6860428
28.101917 248.76898 -9.6955814
28.112539 248.7684 -9.6903362
27.703445 248.79449 -9.6913738
27.938072 248.81682 -9.6906624
27.956602 248.80933 -9.6889505
27.939636 248.83591 -9.6873035
27.816833 248.86032 -9.6840239
27.834463 248.86316 -9.6830626
27.855307 248.85513 -9.6944847
27.876472 248.85481 -9.6854963
27.94841 248.85184 -9.6749649
27.954693 248.84949 -9.6946812
27.988274 248.85553 -9.6771641
27.833933 248.88118 -9.6858749
27.849239 248.91768 -9.6779232
27.152859 249.02426 -9.6941471
27.081966 249.06697 -9.6912241
27.02618 249.09628 -9.685173
27.045231 249.08481 -9.6892395
27.07498 249.09915 -9.6787186
27.003876 249.114 -9.6737776
27.031479 249.11261 -9.6790085
27.234131 249.13632 -9.6888018
28.546469 247.88173 -9.6464825
28.5313 247.90498 -9.6561832
28.520624 247.91309 -9.6699772
28.533283 247.91997 -9.6584415
28.066799 248.18781 -9.6528692
28.067892 248.2094 -9.6650543
28.095776 248.19757 -9.6568165
28.103632 248.23241 -9.667717
28.067488 248.26678 -9.666461
28.091089 248.25914 -9.6556187
28.123081 248.26895 -9.6510229
28.068523 248.29037 -9.6586723
28.090822 248.28542 -9.6635361
28.114023 248.28981 -9.6613607
28.135033 248.29922 -9.6524086
28.162064 248.29367 -9.6634693
28.093662 248.3096 -9.6627302
28.121304 248.31665 -9.6579361
28.146328 248.3176 -9.6647606
28.186676 248.45828 -9.6629972
28.19923 248.49936 -9.6662693
28.21681 248.50378 -9.666254
28.204618 248.51981 -9.6598511
28.214127 248.52068 -9.6602783
28.701397 248.51219 -9.6685257
28.715002 248.53897 -9.6547556
27.391689 248.58545 -9.6631184
27.411381 248.57779 -9.6512651
27.44561 248.58357 -9.657774
27.46426 248.58115 -9.6620922
27.401525 248.60098 -9.6471138
27.418106 248.59431 -9.6622028
27.438316 248.59656 -9.6623983
27.458416 248.59753 -9.6461449
27.893986 248.59529 -9.6714993
27.913811 248.59717 -9.6528368
27.939175 248.59489 -9.6506577
27.842138 248.62714 -9.6601906
27.86055 248.63135 -9.6560259
27.887981 248.62183 -9.6663189
27.903316 248.62061 -9.6548843
27.935738 248.62265 -9.6487522
27.671507 248.73727 -9.6642933
27.706768 248.73325 -9.6558475
27.676662 248.76245 -9.6676779
27.699711 248.75586 -9.6633186
27.674068 248.78259 -9.6584558
27.696934 248.78406 -9.6635723
27.673832 248.80453 -9.656023
27.695515 248.80284 -9.6648464
27.942587 248.83235 -9.6601324
27.956284 248.84004 -9.6599579
27.984444 248.84366 -9.651556
27.843998 248.867 -9.6690121
27.940022 248.85506 -9.651783
27.95808 248.85771 -9.6549778
27.985088 248.85669 -9.6576481
27.83441 248.88318 -9.6592913
27.859188 248.88263 -9.6551294
27.872791 248.87753 -9.6710377
27.832584 248.90575 -9.6530933
27.838009 248.93338 -9.6533861
27.006815 249.09859 -9.6559772
27.021597 249.09129 -9.6569538
27.053101 249.09433 -9.6596012
27.006207 249.11931 -9.6511574
27.028008 249.11423 -9.6608877
27.002882 249.14276 -9.6598415
27.023684 249.13733 -9.6520844
28.535191 247.87973 -9.625824
28.55863 247.90463 -9.630311
28.527786 247.9151 -9.6385269
28.556534 247.9185 -9.6350327
28.068899 248.18661 -9.6306591
28.094187 248.1825 -9.6337614
28.069254 248.20125 -9.6408262
28.117912 248.23378 -9.6360321
28.06847 248.26547 -9.634223
28.095102 248.26389 -9.6378536
28.108723 248.26947 -9.6305962
28.072384 248.28989 -9.6275921
28.092365 248.2841 -9.6361055
28.120911 248.28984 -9.6370487
28.134491 248.28409 -9.6376219
28.095085 248.30281 -9.6334686
28.118675 248.31554 -9.6284447
28.143024 248.31065 -9.6251431
28.098948 248.34341 -9.6294975
28.166607 248.32755 -9.6428185
28.728218 248.5036 -9.6315689
28.197315 248.52773 -9.6321812
28.214497 248.51506 -9.6422768
28.724592 248.52315 -9.6319551
28.737255 248.53331 -9.6344795
28.200527 248.54367 -9.6329212
27.416471 248.58423 -9.6357269
27.938347 248.57741 -9.6330147
27.96596 248.57964 -9.6425657
27.372396 248.59267 -9.6258354
27.390326 248.59605 -9.6292362
27.417057 248.59811 -9.6353769
27.441582 248.5899 -9.6235313
27.835472 248.60782 -9.6313639
27.849792 248.6053 -9.6351547
27.909756 248.60776 -9.6446075
27.941103 248.59528 -9.6305113
27.95956 248.59717 -9.6352062
27.834137 248.63022 -9.6343708
27.961016 248.62061 -9.6340218
27.834789 248.63818 -9.6344814
27.856049 248.64307 -9.6228018
27.676374 248.73431 -9.6340656
27.671175 248.74942 -9.6290998
27.692017 248.75815 -9.6353207
27.724621 248.74899 -9.6356058
27.742363 248.75166 -9.6228523
27.673691 248.78569 -9.6431465
27.694992 248.78915 -9.6443634
27.727306 248.77086 -9.6290226
27.656212 248.80692 -9.6347084
27.698248 248.81491 -9.6336689
27.636772 248.82155 -9.6218529
27.656775 248.82982 -9.6271992
27.671793 248.82561 -9.6331244
27.960148 248.84407 -9.6415567
27.838402 248.87048 -9.633894
27.947159 248.84787 -9.6307087
27.964012 248.86034 -9.6308584
27.987171 248.86313 -9.6428032
27.818859 248.8965 -9.6299648
27.836468 248.88896 -9.6380606
27.854048 248.89377 -9.6350384
27.961502 248.88268 -9.6265965
27.81955 248.91148 -9.6391411
27.837978 248.91226 -9.6303225
27.850319 248.90648 -9.6297798
27.836731 248.93381 -9.6273165
27.861233 248.92838 -9.6334534
27.064371 249.0761 -9.6455498
26.985029 249.09355 -9.6289215
27.004066 249.0993 -9.6360626
27.030844 249.1015 -9.6393337
27.04431 249.10062 -9.6374454
26.984272 249.10658 -9.6225357
26.999926 249.11647 -9.6363935
27.028551 249.1171 -9.6314945
28.527779 247.88202 -9.6192093
28.560747 247.88072 -9.6079483
28.582098 247.88295 -9.6026192
28.56135 247.89754 -9.6066179
28.605064 247.90913 -9.6055794
28.573187 247.91049 -9.5964575
28.072113 248.15988 -9.6099195
28.105907 248.15219 -9.6072598
28.066933 248.1774 -9.606041
28.090664 248.18369 -9.6082706
28.083256 248.24759 -9.6172962
28.117744 248.2312 -9.6020908
28.07078 248.26782 -9.611165
28.104172 248.25977 -9.6158056
28.113905 248.26315 -9.6019058
28.133636 248.26408 -9.6136274
28.068762 248.2883 -9.6006498
28.089478 248.28717 -9.6080418
28.123085 248.2894 -9.6121693
28.137566 248.29855 -9.6006527
28.173679 248.28719 -9.6077156
28.060026 248.30089 -9.6032257
28.097097 248.32048 -9.6170769
28.123011 248.31972 -9.6086969
28.154524 248.30923 -9.6089706
28.164627 248.3093 -9.6060419
28.104967 248.34435 -9.6058559
28.113922 248.33792 -9.6047039
28.158705 248.35196 -9.6119556
28.202049 248.52966 -9.6042709
28.727673 248.52325 -9.6130848
28.171783 248.54774 -9.6083088
28.194162 248.55037 -9.6087112
27.372393 248.5817 -9.6152945
27.389221 248.58342 -9.6050453
27.40962 248.58194 -9.6154346
27.961401 248.57321 -9.6182013
27.35107 248.60567 -9.5995312
27.363184 248.59834 -9.608634
27.389938 248.59555 -9.6002493
27.413275 248.59375 -9.6067924
27.445133 248.59686 -9.6141815
27.936872 248.58728 -9.6024275
28.006252 248.60046 -9.6070356
27.364494 248.61656 -9.5960884
27.41531 248.61287 -9.6121931
27.814671 248.62767 -9.5970449
27.852322 248.63042 -9.6104698
27.96664 248.61984 -9.6118526
27.995691 248.61301 -9.6038332
28.008259 248.62363 -9.6097641
27.398819 248.64774 -9.5968628
27.823725 248.63913 -9.6139851
27.85536 248.64352 -9.6121283
27.838717 248.66493 -9.6072044
27.822184 248.69873 -9.5979595
27.660095 248.73904 -9.6110125
27.674625 248.73332 -9.6041765
27.702444 248.73599 -9.6034689
27.660149 248.74997 -9.6184292
27.66935 248.74933 -9.6057663
27.698288 248.74269 -9.6161928
27.725525 248.75273 -9.6030903
27.65435 248.81712 -9.6097527
27.673603 248.81819 -9.6033096
27.625015 248.82993 -9.5992546
27.649883 248.82983 -9.6036139
27.678207 248.83493 -9.6097784
27.69434 248.82376 -9.6081505
27.651379 248.85117 -9.6052837
27.67651 248.8476 -9.6100416
27.967493 248.85933 -9.6095228
27.985214 248.86633 -9.6085186
27.969334 248.88438 -9.6072063
27.988827 248.88271 -9.6043987
28.008141 248.88699 -9.6043968
27.830839 248.91837 -9.610177
27.853113 248.91241 -9.6140175
28.000816 248.90044 -9.5968418
27.819263 248.93681 -9.6049614
27.83909 248.9371 -9.6058655
27.857594 248.94804 -9.6126099
27.893871 248.93243 -9.5944672
27.837772 248.95819 -9.6069202
26.981297 249.10255 -9.6129894
26.99626 249.09723 -9.6184769
26.976562 249.11845 -9.6084232
26.996382 249.11124 -9.608283
26.97303 249.13364 -9.5970554
26.992264 249.13437 -9.599658
28.600742 247.88345 -9.57024
28.545263 247.89622 -9.5769024
28.561708 247.89635 -9.577364
28.562452 247.91426 -9.5815182
28.574081 247.91458 -9.5698328
28.643463 247.92613 -9.5869427
28.071203 248.15665 -9.5820465
28.084904 248.15642 -9.5847483
28.142654 248.22139 -9.5859642
28.070267 248.24081 -9.5839996
28.123608 248.2451 -9.5795612
28.138519 248.23618 -9.5724049
28.069281 248.26537 -9.5770979
28.123758 248.26146 -9.5814772
28.072575 248.28616 -9.5746288
28.082684 248.27954 -9.5862064
28.124367 248.29063 -9.5891571
28.052856 248.30225 -9.5813427
28.122578 248.31947 -9.5815754
28.139042 248.31607 -9.5773001
28.118464 248.34187 -9.5774174
28.183296 248.32768 -9.568881
28.186665 248.34772 -9.5780373
28.166622 248.36714 -9.5815763
28.205442 248.51535 -9.5779934
28.747066 248.52502 -9.581459
28.764656 248.51877 -9.5732231
28.175398 248.54538 -9.576766
28.191231 248.55319 -9.5858135
27.35136 248.58319 -9.5876884
27.401798 248.58012 -9.5699558
27.436821 248.5799 -9.5939426
28.182062 248.56723 -9.5895939
28.191143 248.56512 -9.583519
27.339792 248.59851 -9.5791187
27.360399 248.60349 -9.5798817
27.390781 248.59802 -9.5761185
27.409687 248.59271 -9.5833187
27.446301 248.59512 -9.5776958
27.997646 248.60619 -9.5881968
27.370073 248.62398 -9.5863323
27.391933 248.62027 -9.5791254
27.857899 248.63007 -9.5853729
27.813381 248.64697 -9.5828724
27.855198 248.65083 -9.5783024
27.806398 248.69304 -9.5715122
27.821945 248.69962 -9.5744829
27.65736 248.73344 -9.5741377
27.675413 248.73039 -9.5836039
27.649437 248.74599 -9.5735855
27.674032 248.75145 -9.5773888
27.966244 248.8042 -9.5721636
27.6346 248.83807 -9.580122
27.65509 248.83875 -9.5833378
27.670135 248.8356 -9.5902443
27.966467 248.82848 -9.5761032
27.993719 248.82513 -9.5711775
27.637184 248.84915 -9.5910511
27.649166 248.85924 -9.5763683
27.970032 248.85771 -9.5773964
27.977917 248.8707 -9.5753345
27.969282 248.8862 -9.5842676
27.98414 248.88338 -9.5825815
28.007706 248.88251 -9.5714798
27.973394 248.90021 -9.5748329
27.984192 248.90411 -9.5762768
28.020195 248.90799 -9.5809517
27.815695 248.93506 -9.5883045
27.832012 248.94089 -9.5850067
27.872284 248.93526 -9.5829468
27.834906 248.96037 -9.5784731
27.875172 248.95006 -9.5895634
27.828768 248.98181 -9.5888424
26.943745 249.1236 -9.5761166
26.962965 249.1207 -9.5785246
27.001949 249.11389 -9.5750799
26.9575 249.13898 -9.580883
28.57317 247.87761 -9.5615511
28.547359 247.89215 -9.5604477
28.561092 247.89725 -9.558773
28.587231 247.89507 -9.5503893
28.564671 247.9193 -9.5500221
28.585672 247.91757 -9.5477076
28.072895 248.11679 -9.5490341
28.067327 248.13293 -9.5521126
28.075384 248.14542 -9.5551758
28.082296 248.15111 -9.5651712
28.063225 248.24739 -9.5578766
28.143719 248.23625 -9.5606146
28.052307 248.26639 -9.542408
28.068563 248.25235 -9.559247
28.129263 248.25986 -9.5595207
28.138016 248.26425 -9.5519123
28.178829 248.27153 -9.5514975
28.21167 248.26819 -9.5450115
28.052084 248.28844 -9.5513783
28.065548 248.28992 -9.5574589
28.143673 248.28601 -9.5559616
28.049782 248.30185 -9.5501728
28.063299 248.30312 -9.5462389
28.13044 248.32445 -9.5593452
28.140991 248.31937 -9.5528021
28.177101 248.32431 -9.5447121
28.121014 248.34085 -9.5424709
28.141748 248.3268 -9.564374
28.169207 248.33376 -9.5528746
28.115149 248.35822 -9.5543947
28.171944 248.37216 -9.5613251
28.747799 248.44528 -9.5483189
28.764202 248.4751 -9.5480499
28.7516 248.48373 -9.54282
27.428034 248.5329 -9.5652161
28.183514 248.52359 -9.5508204
28.762459 248.51233 -9.5616407
27.373463 248.55238 -9.5485535
28.190979 248.55267 -9.5570526
28.212217 248.55814 -9.5467529
27.318329 248.58444 -9.5443192
27.34656 248.57864 -9.5489407
27.374043 248.56427 -9.5525799
27.384794 248.56415 -9.5548515
27.41711 248.57697 -9.5558567
28.180862 248.56934 -9.5539036
28.196602 248.56743 -9.5676184
27.332373 248.59912 -9.5556421
27.353233 248.59985 -9.5594845
27.351711 248.61769 -9.5527639
27.371902 248.62631 -9.5533791
27.394142 248.62071 -9.5534363
27.855011 248.61298 -9.5671577
27.363079 248.64348 -9.5512581
27.390059 248.64743 -9.5428391
27.793947 248.65054 -9.5558968
27.809259 248.65422 -9.5577316
27.836378 248.65305 -9.556633
27.813618 248.69019 -9.5441895
27.820402 248.6969 -9.5525331
27.660688 248.75598 -9.5524616
27.670692 248.7476 -9.5505905
27.695633 248.76364 -9.5437469
27.633041 248.84482 -9.5606327
27.649202 248.84003 -9.5632839
27.961876 248.83461 -9.567276
27.631893 248.85576 -9.5548592
27.647884 248.85915 -9.5518513
27.676704 248.8577 -9.5614166
27.631119 248.87712 -9.5569487
27.642254 248.87503 -9.557272
27.66608 248.87387 -9.5491924
27.975605 248.88863 -9.5572109
27.986746 248.89444 -9.5577297
27.965519 248.909 -9.5580826
27.990271 248.90666 -9.5558014
28.016068 248.90678 -9.5555706
28.040855 248.91254 -9.5541496
28.068569 248.91525 -9.5633621
28.031914 248.93051 -9.5437527
27.831825 248.9668 -9.5602179
27.849632 248.96005 -9.5554829
27.837002 248.98624 -9.5573683
27.857086 248.98575 -9.5574245
27.886955 248.98102 -9.5663338
27.832947 249.00475 -9.5534763
27.86972 249.04218 -9.5591698
26.948999 249.11588 -9.5555067
26.978504 249.12483 -9.5514364
26.933071 249.14142 -9.5470514
26.97138 249.13943 -9.5511093
28.544981 247.90768 -9.5383358
28.563721 247.9039 -9.5318518
28.581089 247.89337 -9.5175648
28.60923 247.90225 -9.5311623
28.628401 247.90637 -9.5212908
28.545322 247.92325 -9.5279379
28.557198 247.92683 -9.526968
28.584343 247.92111 -9.5302982
28.608957 247.9202 -9.5238247
28.619024 247.94138 -9.5181866
28.642323 247.94312 -9.5390701
28.066467 248.10483 -9.5268908
28.072062 248.12874 -9.5213299
28.039604 248.20566 -9.5256271
28.047543 248.23192 -9.5272598
28.057953 248.2337 -9.5308552
28.143223 248.24612 -9.5318117
28.113079 248.27388 -9.5217371
28.143446 248.26486 -9.5310345
28.044096 248.28679 -9.5225277
28.059361 248.28598 -9.5329723
28.150688 248.27588 -9.5232363
28.166407 248.27406 -9.5312042
28.048056 248.30603 -9.5277386
28.063734 248.30585 -9.5214338
28.145889 248.31039 -9.5346813
28.142349 248.32684 -9.5250778
28.162785 248.33539 -9.5186653
28.120682 248.36334 -9.5328674
28.761923 248.48929 -9.5348988
27.359829 248.52829 -9.526638
27.381004 248.5206 -9.5385284
27.404057 248.52771 -9.5258493
28.77301 248.51434 -9.5283289
27.368473 248.5463 -9.5333652
27.385681 248.54996 -9.5315161
27.307735 248.58142 -9.5234413
27.344601 248.58417 -9.5282879
27.365801 248.57825 -9.5285873
28.180115 248.58295 -9.5347767
28.185221 248.57283 -9.517868
27.313089 248.60112 -9.5322266
28.181925 248.59029 -9.5202084
28.186417 248.58789 -9.5297794
27.331764 248.61635 -9.5219765
27.355267 248.64723 -9.5392094
27.826317 248.65532 -9.5324955
27.804892 248.68015 -9.5313396
27.825897 248.67168 -9.529501
27.818609 248.69348 -9.5312777
27.656548 248.73854 -9.5261078
27.651688 248.75386 -9.5383034
27.674274 248.75179 -9.5304594
27.698362 248.74292 -9.5285044
27.611345 248.85905 -9.5185871
27.628407 248.86484 -9.5258646
27.646368 248.86475 -9.5293808
27.611832 248.87399 -9.5162601
27.624657 248.87909 -9.5306892
28.001148 248.89636 -9.537282
28.004726 248.88129 -9.5384655
27.610268 248.91521 -9.5331936
27.646748 248.90706 -9.5226593
27.992706 248.91248 -9.527668
28.00753 248.91327 -9.5287962
28.037086 248.92209 -9.5350599
27.99872 248.93602 -9.5332127
28.01214 248.9323 -9.5237675
28.041325 248.92575 -9.5241375
27.818024 248.98186 -9.5244465
27.835911 248.99376 -9.5315123
27.84766 248.99281 -9.5340548
27.841429 249.00969 -9.5291662
27.855251 249.01762 -9.5270281
27.877031 249.01303 -9.5347252
27.839218 249.0401 -9.5263977
27.851692 249.04163 -9.5208359
26.944973 249.12454 -9.5275488
26.970875 249.12216 -9.5378952
26.92247 249.14488 -9.5270567
26.952732 249.13766 -9.5172462
26.975445 249.14777 -9.537756
26.917973 249.1673 -9.5269775
28.56789 247.90807 -9.5126362
28.570335 247.91202 -9.5097904
28.592216 247.916 -9.5143328
28.612387 247.92249 -9.5120115
28.592619 247.94167 -9.5139446
28.072479 248.11136 -9.5040112
28.07008 248.12103 -9.5041733
28.090117 248.12665 -9.5043793
28.039259 248.20599 -9.5000763
28.057194 248.21567 -9.4996452
28.14753 248.26414 -9.5071707
28.161291 248.26335 -9.5019732
28.046547 248.28522 -9.5050888
28.059135 248.28539 -9.5080738
28.146244 248.28552 -9.5095911
28.161896 248.28372 -9.5020771
28.048107 248.30363 -9.5030632
28.06629 248.30717 -9.5010281
28.14975 248.31415 -9.5043373
28.125385 248.34908 -9.5024872
28.154881 248.33128 -9.5001507
28.113674 248.36508 -9.5034523
27.350849 248.50381 -9.507678
28.768059 248.49597 -9.5063419
27.348291 248.51953 -9.5079632
28.17556 248.52872 -9.5128489
28.769238 248.51044 -9.5097694
27.367229 248.54092 -9.5141869
28.186789 248.55988 -9.5090466
27.317066 248.57993 -9.5143452
28.184944 248.58597 -9.5067711
27.309052 248.60715 -9.501565
28.172716 248.59457 -9.501379
27.652618 248.756 -9.5044928
27.606792 248.86928 -9.5034466
27.628807 248.86969 -9.5090427
27.639427 248.87173 -9.5149994
27.677536 248.86069 -9.507247
27.60524 248.89604 -9.5070562
27.648457 248.87845 -9.506361
27.666048 248.88205 -9.5020561
27.627932 248.89922 -9.5076675
27.996126 248.91194 -9.5129147
27.994171 248.93283 -9.5075312
28.013992 248.93562 -9.5007191
28.041485 248.93413 -9.5068026
27.834644 248.98367 -9.5053844
27.852959 248.99504 -9.5132942
27.836172 249.01688 -9.5054522
27.853642 249.01776 -9.5009575
27.879421 249.02122 -9.5041542
27.853662 249.03906 -9.5035067
27.84 249.05887 -9.508523
27.863577 249.06447 -9.5024462
27.876434 249.06406 -9.5099277
26.885326 249.0894 -9.5079937
26.889441 249.12115 -9.5109482
26.916964 249.12352 -9.5147877
26.879797 249.13428 -9.5055981
26.903151 249.14455 -9.5033531
26.925491 249.14511 -9.5011244
26.944103 249.13589 -9.5097475
26.915815 249.16081 -9.5040426
28.194715 247.53484 -10.855232
28.201509 247.50964 -10.832914
28.201397 247.53667 -10.828871
28.210968 247.54807 -10.829718
28.570286 248.19386 -10.767543
28.569042 248.20383 -10.773312
28.566216 248.22609 -10.764795
28.543535 248.19095 -10.746561
28.556515 248.18121 -10.745865
28.607651 248.1925 -10.747265
28.53569 248.20694 -10.748718
28.562553 248.2142 -10.742446
28.587425 248.21474 -10.752363
28.559469 248.1904 -10.727912
28.582613 248.19522 -10.721214
28.553823 248.20622 -10.732829
28.580734 248.20886 -10.727768
28.603226 248.20773 -10.723389
28.593552 248.20616 -10.709763
28.649036 248.21246 -10.689972
27.844479 247.8784 -10.977976
27.854126 247.89008 -10.982085
27.842419 247.87726 -10.959991
27.846153 247.87743 -10.950157
27.834457 247.8432 -10.922737
27.847841 247.84914 -10.927544
27.841524 247.86206 -10.935152
27.845093 247.83086 -10.904007
27.8354 247.85027 -10.899273
27.847885 247.83434 -10.895611
27.836052 247.8681 -10.911866
27.837341 247.84824 -10.882632
27.856544 247.83563 -10.88839
27.843334 247.86313 -10.886505
27.846329 247.8605 -10.886801
27.837643 247.82921 -10.853619
27.881733 247.82651 -10.849562
27.839977 247.8492 -10.857666
27.8545 247.85214 -10.855995
27.875652 247.8266 -10.818478
27.825628 247.83737 -10.840731
27.850624 247.82031 -10.806397
27.848148 247.84245 -10.813574
27.872475 247.82793 -10.787998
27.84436 247.83353 -10.777691
27.804436 247.79761 -10.753456
27.824047 247.80164 -10.752857
27.830772 247.81036 -10.753752
27.852911 247.83307 -10.76152
28.167133 248.06302 -11.079725
28.168531 248.10217 -11.055939
28.142862 248.05589 -11.047075
27.988554 248.04613 -11.249767
27.968204 248.09274 -11.238378
27.968748 248.07854 -11.223415
27.990776 248.08386 -11.162221
27.971294 248.10498 -11.062414
28.015102 248.12921 -11.057102
28.004883 248.12881 -11.033737
27.993151 248.12694 -10.986073
27.865686 248.13791 -10.985317
27.879841 248.11836 -10.941845
27.873352 248.08301 -10.897593
27.863873 248.09557 -10.902282
27.859947 248.12561 -10.917489
27.886501 248.12732 -10.902817
27.88303 248.08124 -10.87536
27.887558 248.06194 -10.85341
27.877941 248.08371 -10.857025
27.86908 248.1001 -10.861703
28.231663 248.29123 -10.718234
28.240471 248.31306 -10.720438
28.262054 248.30296 -10.724913
28.262634 248.3316 -10.713814
28.266323 248.29941 -10.707732
28.225601 248.34233 -10.695835
28.243275 248.32892 -10.700597
28.22875 248.12457 -10.971785
28.30179 248.14113 -10.968655
28.318485 248.17296 -10.929483
28.353256 248.21014 -10.902427
27.10553 248.2464 -11.233784
27.083082 248.25517 -11.206083
27.103542 248.26007 -11.221566
27.079315 248.26054 -11.196201
27.098623 248.25914 -11.19826
27.082684 248.26521 -11.171657
27.091766 248.27527 -11.16474
27.094183 248.27518 -11.154222
27.044092 248.23146 -11.133451
27.081768 248.24725 -11.14402
27.056545 248.25989 -11.139662
27.074596 248.26755 -11.138278
27.078598 248.27831 -11.137609
27.037024 248.24481 -11.11003
27.047626 248.23225 -11.115223
27.058733 248.25107 -11.114876
27.068962 248.25523 -11.126957
27.030338 248.21408 -11.090719
27.034134 248.23058 -11.085424
27.044262 248.24417 -11.097864
27.022305 248.18172 -11.066943
27.022501 248.20782 -11.058094
27.012638 248.22269 -11.065726
27.027809 248.22443 -11.068658
27.054316 248.2309 -11.068082
27.017122 248.18846 -11.049469
27.293587 248.06281 -11.382648
27.230949 248.08026 -11.385129
27.316101 248.07718 -11.367252
27.361052 248.03258 -11.481362
27.314182 248.04622 -11.453734
27.303699 248.0488 -11.430845
27.138037 248.35934 -11.233363
27.154392 248.33469 -11.222208
27.182777 248.3288 -11.223794
27.182703 248.62773 -10.491977
27.197685 248.61783 -10.493837
27.14756 248.66907 -10.488148
27.180868 248.66512 -10.480052
27.175781 248.70352 -10.479765
27.165367 248.67453 -10.464818
27.17606 248.67877 -10.469076
27.147266 248.69022 -10.469175
27.175434 248.6962 -10.467897
27.158207 248.63223 -10.443251
27.166031 248.67564 -10.446743
27.175766 248.68184 -10.438658
27.142719 248.69611 -10.443485
27.15197 248.69408 -10.445084
27.142836 248.71754 -10.437483
27.148964 248.71797 -10.432772
27.22242 248.10989 -10.483822
27.220655 248.12474 -10.483479
27.235193 248.13557 -10.487967
27.248928 248.12625 -10.490513
27.205343 248.15034 -10.481672
27.211319 248.09833 -10.464488
27.2099 248.12619 -10.471719
27.231958 248.13257 -10.47064
27.191336 248.16238 -10.458224
27.209396 248.15677 -10.458021
27.189911 248.08447 -10.433547
27.201347 248.08069 -10.438198
27.191599 248.10538 -10.440694
27.207783 248.10486 -10.437637
27.211563 248.11911 -10.439992
27.191767 248.16805 -10.450121
27.203846 248.1629 -10.449341
27.185343 248.05948 -10.413717
27.212349 248.0537 -10.403883
27.20752 248.07462 -10.408985
27.180647 248.03009 -10.37746
27.214569 248.03763 -10.396883
27.180901 248.05699 -10.391035
27.186691 248.05132 -10.373791
27.207684 248.45268 -10.480717
27.209324 248.47864 -10.490928
27.181028 248.49411 -10.489117
27.184772 248.46631 -10.463684
27.207281 248.46693 -10.462841
27.180626 248.48465 -10.465596
27.199846 248.49316 -10.469474
27.199394 248.51993 -10.475848
27.193848 248.41817 -10.42701
27.216835 248.42862 -10.437824
27.195763 248.44537 -10.435167
27.220139 248.45284 -10.44301
27.222385 248.4518 -10.45023
27.184429 248.47166 -10.439241
27.19755 248.48775 -10.450318
27.216045 248.41495 -10.416698
27.231483 248.4135 -10.401812
27.203287 248.45284 -10.402372
27.227127 248.43484 -10.400326
27.188759 248.4574 -10.418747
27.205978 248.4713 -10.412919
27.218189 248.40228 -10.384781
27.237633 248.39178 -10.39324
27.213387 248.42996 -10.379582
27.232224 248.41431 -10.384741
27.19569 248.43594 -10.379053
27.204775 248.44434 -10.386446
27.226742 248.43881 -10.386087
27.218567 248.45677 -10.391506
27.236633 248.39801 -10.37111
27.212275 248.41095 -10.367929
27.230413 248.41042 -10.363875
27.190306 248.44701 -10.363428
27.211788 248.44476 -10.36223
27.227993 248.44089 -10.363523
27.237316 248.37747 -10.480968
27.263126 248.35938 -10.481684
27.289425 248.37225 -10.493627
27.312016 248.37518 -10.492851
27.237671 248.39316 -10.481815
27.259045 248.39407 -10.493032
27.279001 248.38782 -10.499173
27.206245 248.41748 -10.482637
27.259619 248.40823 -10.488976
27.220528 248.37648 -10.467134
27.253521 248.36844 -10.465434
27.213324 248.3932 -10.464911
27.227478 248.38826 -10.469281
27.249504 248.40488 -10.469983
27.222664 248.34204 -10.438347
27.164326 248.36707 -10.429031
27.184769 248.36563 -10.434381
27.203674 248.37073 -10.451504
27.204771 248.38364 -10.438165
27.140419 248.33731 -10.417435
27.153711 248.34436 -10.411937
27.184748 248.33618 -10.41214
27.211956 248.33882 -10.422438
27.140303 248.35866 -10.414496
27.171597 248.37167 -10.415625
27.206635 248.37085 -10.406847
27.193693 248.38313 -10.420598
27.133375 248.34793 -10.381771
27.15139 248.33423 -10.380695
27.174423 248.33742 -10.380803
27.137356 248.35818 -10.396061
27.131569 248.31937 -10.360331
27.150278 248.31956 -10.360085
27.13966 248.34137 -10.361316
27.14274 248.32101 -10.345661
27.171051 248.30167 -10.34794
27.13623 248.33337 -10.331501
27.146324 248.34595 -10.347115
27.170692 248.26511 -10.31304
27.133345 248.29463 -10.304749
27.166359 248.2834 -10.308669
27.13343 248.31487 -10.307081
27.140665 248.3318 -10.312218
27.136982 248.26277 -10.277269
27.114048 248.2886 -10.277866
27.134716 248.29431 -10.287344
27.1556 248.28308 -10.28253
27.117903 248.31607 -10.290136
27.134695 248.31689 -10.285061
27.178181 248.31973 -10.292076
27.112186 248.29315 -10.267855
27.143269 248.2771 -10.260195
27.147625 248.28705 -10.268539
27.105003 248.31821 -10.260381
26.505962 248.7634 -10.490379
26.490532 248.77322 -10.484381
26.495464 248.78459 -10.497782
26.520294 248.79045 -10.485653
26.45845 248.75066 -10.469723
26.46656 248.77084 -10.470675
26.480497 248.77887 -10.465047
26.504692 248.78247 -10.47237
26.476875 248.79416 -10.45986
26.464407 248.74759 -10.435698
26.457878 248.77777 -10.436859
26.481041 248.79318 -10.445271
26.407654 248.7446 -10.407965
26.431377 248.74973 -10.420971
26.455711 248.76141 -10.411831
26.434446 248.78925 -10.411338
26.449799 248.7827 -10.41183
26.434616 248.80675 -10.407056
26.448364 248.80612 -10.413792
26.433929 248.82968 -10.409307
26.445332 248.83258 -10.405035
26.42823 248.76302 -10.387525
26.445679 248.77898 -10.391243
26.432919 248.81024 -10.390987
26.434853 248.83055 -10.382276
26.444334 248.83069 -10.383432
26.421692 248.85567 -10.382874
26.359179 248.76569 -10.350496
26.373661 248.77809 -10.35331
26.395496 248.78506 -10.356774
26.422962 248.7836 -10.367775
26.439087 248.84578 -10.36006
26.443207 248.84564 -10.36257
26.431417 248.85422 -10.364895
26.351398 248.78789 -10.329184
26.368286 248.77858 -10.339792
26.413246 248.78261 -10.347079
26.371189 248.80006 -10.326756
26.311573 248.7683 -10.296444
26.330425 248.77966 -10.315355
26.342396 248.78445 -10.304905
26.323914 248.7973 -10.306637
26.353487 248.80341 -10.306817
26.30584 248.78445 -10.283325
26.316618 248.78331 -10.28869
26.29945 248.80167 -10.274438
26.323246 248.8045 -10.283105
26.338726 248.80363 -10.288136
26.296528 248.78674 -10.260666
26.281796 248.811 -10.246716
26.279957 248.78835 -10.24076
26.287384 248.79179 -10.234442
26.276287 248.79739 -10.23523
26.28064 248.82228 -10.239967
26.303631 248.82507 -10.233618
26.973417 248.52106 -10.487121
26.997509 248.52551 -10.488348
26.960546 248.53603 -10.478218
26.97707 248.54282 -10.488402
26.99688 248.54865 -10.494002
27.036478 248.57632 -10.486575
27.051483 248.58322 -10.486313
27.066242 248.57951 -10.497126
27.023994 248.60379 -10.493574
27.048727 248.59164 -10.496625
26.94681 248.52417 -10.467729
26.986671 248.51859 -10.470415
26.931622 248.53712 -10.455477
26.952511 248.5376 -10.469452
26.976507 248.53806 -10.465345
26.99423 248.55298 -10.467823
26.973648 248.57494 -10.463774
27.018179 248.57803 -10.469428
27.00869 248.59302 -10.460094
27.024387 248.59644 -10.469298
27.046307 248.59387 -10.47437
26.9251 248.5228 -10.440633
26.950201 248.52866 -10.433754
26.981842 248.5275 -10.449671
26.917709 248.53572 -10.430349
27.000412 248.54309 -10.446102
26.924644 248.57693 -10.433773
26.947422 248.57715 -10.43857
26.967449 248.57047 -10.434671
26.996323 248.57147 -10.435925
26.921028 248.595 -10.434191
26.950562 248.59207 -10.43985
26.973984 248.59575 -10.441748
26.993141 248.58749 -10.447792
26.883392 248.52286 -10.417347
26.905714 248.52698 -10.410567
26.959312 248.52859 -10.408801
26.967968 248.52338 -10.420534
26.899332 248.53558 -10.416696
26.929382 248.53894 -10.410357
26.978119 248.54477 -10.416689
26.997814 248.54919 -10.422237
26.88216 248.57605 -10.408897
26.897007 248.58034 -10.415504
26.977207 248.58447 -10.420946
26.87925 248.5939 -10.408531
26.892868 248.59659 -10.413477
26.912222 248.58786 -10.42479
26.958515 248.59831 -10.401846
26.984062 248.60434 -10.410303
26.881199 248.52365 -10.397141
26.893032 248.52722 -10.385151
26.912933 248.53293 -10.397747
26.877483 248.5576 -10.383936
26.894144 248.53819 -10.392916
26.911089 248.54239 -10.387146
26.955856 248.55652 -10.381496
26.979866 248.5471 -10.385963
26.989407 248.55692 -10.381866
26.853489 248.57169 -10.383827
26.867718 248.57169 -10.397167
26.98674 248.56316 -10.396437
26.850513 248.59471 -10.388708
26.869194 248.59148 -10.395947
26.954847 248.59021 -10.391451
26.972229 248.59908 -10.387307
26.966698 248.61821 -10.387684
26.85425 248.52409 -10.35601
26.877455 248.52531 -10.354566
26.883848 248.53906 -10.37396
26.892239 248.54083 -10.348932
26.915257 248.54408 -10.366335
27.009079 248.55217 -10.35639
26.830273 248.57716 -10.356176
26.83626 248.56882 -10.363766
26.96088 248.56381 -10.37088
26.99873 248.57025 -10.365026
26.837423 248.5963 -10.358736
26.945961 248.61189 -10.369528
26.992104 248.60182 -10.366926
26.858292 248.61243 -10.360299
26.980885 248.61295 -10.369482
26.992256 248.62378 -10.357445
26.867523 248.52983 -10.34053
26.888527 248.54062 -10.337262
26.848495 248.52914 -10.316057
26.866461 248.52283 -10.321397
26.839218 248.53938 -10.29908
26.875216 248.53741 -10.30881
26.887827 248.54305 -10.306339
27.344559 249.01649 -10.49687
27.344233 249.04161 -10.492793
27.362949 249.03923 -10.491434
27.382332 249.04485 -10.489347
27.343426 249.05939 -10.485179
27.38549 249.06721 -10.480415
27.355888 249.00838 -10.454194
27.339972 249.04817 -10.452843
27.370184 249.04712 -10.463515
27.350529 249.05862 -10.467717
27.36422 249.06967 -10.47584
27.385521 249.06882 -10.470641
27.373524 249.0925 -10.468565
27.390203 249.10278 -10.459217
27.373699 249.11758 -10.458465
27.385822 249.11658 -10.461659
27.383299 249.13684 -10.458471
27.334789 249.01164 -10.443546
27.342482 249.03838 -10.437111
27.35955 249.03348 -10.438671
27.3668 249.06924 -10.441696
27.385002 249.06339 -10.429289
27.426697 249.06509 -10.426938
27.432915 249.06589 -10.450838
27.370968 249.08455 -10.43401
27.395443 249.08571 -10.439629
27.387646 249.13863 -10.444793
27.389868 249.04584 -10.418844
27.365892 249.07492 -10.421719
27.39271 249.06889 -10.414536
27.420687 249.07095 -10.411583
27.458511 249.0712 -10.417925
27.372431 249.08475 -10.414316
27.389725 249.08795 -10.417004
27.365593 249.07101 -10.390181
27.397009 249.07166 -10.387497
27.345955 249.10251 -10.3809
27.361771 249.09378 -10.385231
27.390997 249.08801 -10.386274
27.407833 249.08304 -10.388996
27.414478 249.07605 -10.357325
27.374966 249.09422 -10.366374
27.400946 249.09268 -10.365013
27.414209 249.09297 -10.356834
27.443111 249.08716 -10.355042
27.379948 249.11624 -10.356146
27.410126 249.10789 -10.35034
27.41386 249.0726 -10.340202
27.415932 249.09912 -10.334605
27.43926 249.09482 -10.343885
27.468521 249.09915 -10.333221
27.38744 249.11917 -10.325627
27.420818 249.11432 -10.326785
27.441179 249.11371 -10.328157
27.436588 249.16006 -10.322578
27.398891 249.06667 -10.303984
27.416435 249.07368 -10.315063
27.430054 249.07111 -10.309197
27.394316 249.09253 -10.303833
27.416758 249.09419 -10.311288
27.441381 249.09439 -10.317892
27.421244 249.12003 -10.315936
27.437643 249.12134 -10.310141
27.424221 249.14442 -10.307697
27.433502 249.14783 -10.305809
27.457623 249.14061 -10.308281
27.42597 249.1732 -10.30479
27.43298 249.16986 -10.307378
27.424072 249.19167 -10.304804
27.440228 249.19614 -10.301691
27.419697 249.21869 -10.302393
27.385117 249.07556 -10.285796
27.421116 249.07481 -10.288301
27.391653 249.10597 -10.291903
27.419596 249.09096 -10.284845
27.457239 249.09087 -10.284975
27.428305 249.11639 -10.27009
27.455196 249.13536 -10.292196
27.423042 249.2081 -10.291421
27.428398 249.22514 -10.280896
27.443874 249.21613 -10.287826
27.42046 249.25194 -10.283441
27.43475 249.2639 -10.272519
27.415318 249.05296 -10.2638
27.400629 249.07425 -10.261278
27.415663 249.07497 -10.263552
27.436937 249.06905 -10.255743
27.395962 249.10155 -10.269058
27.423973 249.08929 -10.254526
27.433632 249.09198 -10.250093
27.457476 249.08018 -10.256895
27.492706 249.09538 -10.26766
27.411428 249.10596 -10.230677
27.438633 249.0986 -10.242887
27.467119 249.09543 -10.24122
27.489796 249.09476 -10.233983
26.861153 249.64665 -10.479571
26.877975 249.66214 -10.479182
26.898912 249.66405 -10.48875
26.913403 249.66541 -10.479237
26.895222 249.68477 -10.480496
26.922514 249.68335 -10.49011
26.834579 249.64586 -10.458602
26.876911 249.64955 -10.470875
26.829063 249.66365 -10.472174
26.841497 249.66269 -10.469962
26.875523 249.66351 -10.474414
26.90258 249.66754 -10.467802
26.911997 249.67543 -10.455691
26.89716 249.69165 -10.463923
26.91831 249.6917 -10.462307
26.909584 249.75325 -10.454527
