25.95356 230.63905 -11.223734
25.93465 230.64743 -11.206771
25.953869 230.65605 -11.22986
25.912382 230.68602 -11.212085
25.927816 230.69676 -11.221985
25.863445 230.71869 -11.213608
25.901697 230.72054 -11.224246
25.931532 230.72046 -11.22738
25.828743 230.73018 -11.222408
25.861139 230.73479 -11.213359
25.880667 230.73589 -11.21686
25.91069 230.72879 -11.222929
25.868961 230.75288 -11.215332
25.880533 230.54808 -11.182042
25.658115 230.58463 -11.181728
25.669086 230.58882 -11.190615
25.738617 230.5914 -11.205828
25.867275 230.57275 -11.185143
25.878321 230.58446 -11.189898
25.672018 230.59415 -11.199642
25.701508 230.59453 -11.180154
25.882307 230.60483 -11.197319
25.906729 230.59732 -11.188936
25.938005 230.63602 -11.195249
25.95715 230.63872 -11.200931
25.928944 230.65929 -11.188784
25.813274 230.74516 -11.189441
25.831802 230.74214 -11.19582
25.859072 230.74307 -11.200797
25.876114 230.74414 -11.191657
25.90365 230.74893 -11.180079
25.805794 230.75542 -11.186662
25.82688 230.75484 -11.182275
25.878136 230.75284 -11.191834
25.879925 230.53732 -11.172119
25.862743 230.55682 -11.166367
25.875408 230.55888 -11.165459
25.898335 230.55661 -11.161978
25.596989 230.58435 -11.156153
25.649101 230.58318 -11.161274
25.671734 230.58362 -11.165339
25.705936 230.57831 -11.179305
25.848389 230.57663 -11.170663
25.890182 230.57054 -11.176532
25.655611 230.59586 -11.178173
25.670444 230.59924 -11.16337
25.916756 230.59644 -11.155507
25.929039 230.61638 -11.156749
25.935375 230.63922 -11.170286
25.956944 230.64059 -11.174354
25.951027 230.65559 -11.170153
25.922678 230.69667 -11.160769
25.750809 230.72359 -11.170167
25.783028 230.74295 -11.166633
25.79884 230.74808 -11.175336
25.843132 230.74492 -11.176497
25.851969 230.7403 -11.171488
25.776234 230.75504 -11.159307
25.829311 230.75092 -11.168995
25.864975 230.75964 -11.172012
25.880428 230.76453 -11.17433
25.900211 230.76768 -11.169226
25.86891 230.53773 -11.151282
25.886463 230.53802 -11.141996
25.889492 230.54562 -11.151762
25.89959 230.54558 -11.137491
25.626547 230.57883 -11.144572
25.647917 230.58327 -11.139661
25.664333 230.58307 -11.142657
25.703226 230.57529 -11.150725
25.939001 230.64339 -11.146383
25.959919 230.64243 -11.147614
25.936661 230.65451 -11.139888
25.960384 230.65005 -11.141733
25.749008 230.73083 -11.15098
25.776867 230.74602 -11.146926
25.82774 230.74403 -11.144157
25.771767 230.75143 -11.147247
25.871767 230.53886 -11.127775
25.959135 230.65948 -11.125646
25.755501 230.74579 -11.124662
25.756596 230.75235 -11.123652
26.326496 232.0755 -12.117056
26.329348 232.08519 -12.121396
26.312426 232.10602 -12.117163
25.683594 231.99197 -12.092913
25.678467 232.01602 -12.092219
25.699265 232.01706 -12.103649
25.721722 232.01971 -12.109138
25.681431 232.02898 -12.090259
25.71203 232.02466 -12.093784
26.306757 232.09537 -12.10832
26.323597 232.09271 -12.111799
26.250061 232.1259 -12.103717
26.276814 232.11667 -12.097195
26.295206 232.11311 -12.097588
26.318428 232.10434 -12.106298
26.262547 232.14285 -12.09157
25.654486 232.0199 -12.071771
25.677547 232.01738 -12.077642
25.65625 232.03128 -12.068577
25.681477 232.02612 -12.064721
25.694447 232.04187 -12.07584
25.593678 232.05386 -12.075935
25.933336 232.12132 -12.06794
26.253044 232.12297 -12.080997
26.271402 232.12131 -12.083553
26.292778 232.12134 -12.080175
25.982601 232.14366 -12.078785
26.220774 232.14531 -12.071902
26.243963 232.13905 -12.075018
26.267105 232.13145 -12.078741
26.004051 232.16052 -12.07754
26.047274 232.16444 -12.073822
26.098129 232.16663 -12.079967
26.166882 232.15971 -12.077705
26.182949 232.17673 -12.066242
26.2192 232.16232 -12.076111
26.24234 232.15475 -12.076455
26.120956 232.19341 -12.085016
26.130226 232.20398 -12.086531
26.161482 232.20374 -12.067427
26.18438 232.18442 -12.08762
25.649017 232.01999 -12.054977
25.672001 232.02325 -12.063381
25.569286 232.04529 -12.049501
25.607964 232.04193 -12.055122
25.625759 232.03082 -12.050032
25.648415 232.03146 -12.04842
25.675861 232.02788 -12.050385
25.614466 232.05821 -12.050412
25.654388 232.05522 -12.043297
25.676281 232.05856 -12.046475
25.714245 232.08128 -12.058229
25.744698 232.09909 -12.039805
25.59063 232.11307 -12.038563
25.918591 232.11545 -12.050942
25.923258 232.11618 -12.04132
25.960659 232.12306 -12.058804
25.575956 232.13759 -12.047272
25.884521 232.13095 -12.041166
25.912916 232.13329 -12.049941
25.932878 232.14125 -12.043443
25.959612 232.14632 -12.046222
25.988987 232.15024 -12.044454
26.03179 232.13629 -12.056143
26.215549 232.14754 -12.054861
26.23914 232.15216 -12.058808
25.963245 232.15657 -12.046444
25.988333 232.1608 -12.047213
26.012381 232.16751 -12.045955
26.037296 232.16875 -12.05046
26.05582 232.17737 -12.048043
26.080879 232.17635 -12.054173
26.173182 232.17447 -12.051394
26.196489 232.16878 -12.053063
26.218945 232.16182 -12.058644
26.040924 232.18376 -12.044418
26.067503 232.186 -12.049126
26.090891 232.19322 -12.046312
26.116648 232.1947 -12.051476
26.145748 232.19589 -12.043301
26.170572 232.1927 -12.047421
26.192104 232.18341 -12.046807
26.102913 232.20825 -12.03936
26.116749 232.21542 -12.039585
26.139887 232.2133 -12.047677
26.164995 232.21317 -12.043307
26.05825 232.25726 -12.043196
26.089184 232.24254 -12.041237
26.111122 232.24017 -12.058283
26.05666 232.27536 -12.047406
25.477154 231.94203 -12.023374
25.518915 231.98099 -12.012354
25.633091 232.02313 -12.034646
25.600834 232.0377 -12.025043
25.61945 232.03418 -12.02228
25.642979 232.03258 -12.02998
25.60478 232.06401 -12.023753
25.625828 232.05106 -12.031897
25.597578 232.0916 -12.029056
25.620312 232.08344 -12.027651
25.684086 232.09756 -12.029421
25.703171 232.09459 -12.029899
25.740948 232.08917 -12.01852
25.5793 232.12036 -12.033941
25.703699 232.11751 -12.022292
25.754623 232.12222 -12.026964
25.770868 232.10686 -12.030312
25.803471 232.11987 -12.016906
25.828503 232.12016 -12.020741
25.852121 232.12308 -12.021813
25.880789 232.12325 -12.030032
25.902475 232.12688 -12.02944
25.568481 232.14615 -12.032003
25.704536 232.14413 -12.018852
25.820974 232.12895 -12.026907
25.858248 232.13055 -12.027858
25.883862 232.13181 -12.029936
25.9097 232.13602 -12.034638
25.931242 232.14555 -12.035896
25.957779 232.1508 -12.034885
25.983921 232.14087 -12.030499
25.564728 232.17075 -12.031801
25.693369 232.16592 -12.022153
25.955315 232.15636 -12.036693
26.082687 232.1718 -12.028859
25.561764 232.18518 -12.022787
25.675526 232.19939 -12.017355
25.704292 232.19403 -12.018229
26.072599 232.19261 -12.037774
26.095188 232.20143 -12.03702
26.113745 232.20328 -12.034389
26.145517 232.19604 -12.034781
26.18507 232.19553 -12.037733
25.469234 232.20857 -12.015981
25.677563 232.20953 -12.019515
25.689499 232.21368 -12.030024
26.118761 232.22081 -12.026911
26.139866 232.21642 -12.028544
26.160879 232.20831 -12.032784
26.096394 232.24579 -12.019779
26.113081 232.2406 -12.021571
26.060184 232.27115 -12.028637
26.112663 232.27719 -12.017788
25.443256 232.29596 -12.014617
26.026993 232.30571 -12.0137
26.070017 232.30276 -12.034296
25.419979 231.90732 -11.992316
25.444828 231.93512 -11.993912
25.45892 231.93436 -12.00088
25.450319 231.94766 -11.995505
25.461687 231.95654 -11.998022
25.470329 231.97258 -12.000702
25.514135 231.98877 -11.998539
25.551624 231.98114 -11.99003
25.501995 232.00095 -12.005692
25.521048 232.00809 -11.998531
25.545715 232.01518 -11.998701
25.570389 232.01285 -11.992757
25.588711 232.00357 -11.99165
25.551882 232.02881 -11.997494
25.570312 232.03529 -11.996902
25.594891 232.03777 -11.998696
25.621319 232.04172 -11.998135
25.64566 232.03789 -11.995962
25.575575 232.05663 -11.991868
25.592297 232.05229 -11.993468
25.627308 232.05571 -11.995334
25.645437 232.06631 -11.997896
25.602371 232.08473 -12.007561
25.621887 232.09201 -12.009206
25.650061 232.08389 -11.996484
25.671595 232.09126 -11.994813
25.702736 232.09724 -11.994084
25.728943 232.09097 -12.006273
25.756714 232.09911 -11.996805
25.824478 232.09204 -11.999856
25.700184 232.11111 -11.995415
25.726812 232.11124 -11.999959
25.758688 232.11229 -12.001227
25.779428 232.11253 -12.002967
25.797834 232.11548 -12.007283
25.827068 232.1201 -12.007679
25.717068 232.13358 -12.007421
25.898178 232.1297 -12.004854
25.997688 232.13293 -12.009181
25.672405 232.19223 -12.008017
25.459881 232.21364 -11.992347
26.117134 232.24341 -11.999435
25.429199 232.27614 -11.99751
26.047228 232.27841 -11.996907
26.065186 232.27298 -12.005256
26.041901 232.29594 -11.995358
26.058533 232.29568 -11.999077
26.015963 232.31931 -11.99158
26.032734 232.31381 -11.989287
26.055676 232.31526 -12.000021
25.964909 232.33693 -11.986022
25.392069 231.88968 -11.969279
25.412207 231.8743 -11.980383
25.394785 231.90002 -11.965316
25.416035 231.90372 -11.973423
25.431589 231.90216 -11.972178
25.435528 231.92198 -11.983458
25.48365 231.9429 -11.964989
25.506191 231.96207 -11.981824
25.566051 231.9644 -11.977809
25.556368 231.98816 -11.980783
25.558874 231.98112 -11.976753
25.571304 231.99805 -11.982954
25.571121 232.04962 -11.979307
25.599897 232.04037 -11.972738
25.610464 232.04027 -11.98407
25.550215 232.05641 -11.96592
25.571415 232.05612 -11.976561
25.537046 232.08203 -11.96266
25.605467 232.0889 -11.971431
25.62347 232.0946 -11.972372
25.649294 232.09579 -11.978458
25.666395 232.09836 -11.977926
25.691734 232.08441 -11.985532
25.734009 232.1019 -11.983425
25.502695 232.10519 -11.967911
25.506611 232.11232 -11.98273
25.583958 232.10376 -11.964858
25.606359 232.10355 -11.972346
25.628735 232.10223 -11.97331
25.649754 232.10579 -11.981742
25.680059 232.11243 -11.973959
25.696365 232.10617 -11.976711
25.732346 232.10564 -11.977863
25.475233 232.15912 -11.96665
25.46563 232.1924 -11.965199
25.459524 232.2171 -11.967935
25.445217 232.24326 -11.973766
25.455618 232.24454 -11.972069
25.483961 232.23309 -11.969623
25.446054 232.27168 -11.972171
25.440996 232.29601 -11.96714
26.024517 232.30579 -11.985133
26.036167 232.30644 -11.98456
25.427502 232.31345 -11.963643
25.433918 232.31639 -11.962981
25.994413 232.32718 -11.96787
26.01226 232.32167 -11.974576
26.028191 232.32033 -11.976682
25.415398 232.33708 -11.980156
26.004032 232.34117 -11.974111
25.422733 232.37637 -11.977807
25.430523 232.36534 -11.963601
25.936148 232.36945 -11.975491
25.409845 232.39142 -11.973183
25.955172 232.39085 -11.962662
25.391697 232.42851 -11.974257
25.403645 232.42117 -11.973029
25.385162 232.47318 -11.964737
25.414646 231.882 -11.955675
25.439352 231.88689 -11.948663
25.369976 231.91382 -11.947403
25.386288 231.90771 -11.95547
25.43034 231.90359 -11.943457
25.238327 232.01001 -11.943522
25.246967 232.00932 -11.943565
25.247482 232.03471 -11.934639
25.294491 232.02414 -11.952722
25.317322 232.03726 -11.955708
25.388229 232.06595 -11.942986
25.42506 232.06784 -11.934984
25.4335 232.05255 -11.94054
25.466118 232.06111 -11.942556
25.495472 232.07524 -11.944049
25.527088 232.06757 -11.939087
25.541739 232.06682 -11.948743
25.570438 232.06641 -11.949087
25.4643 232.07648 -11.941254
25.522829 232.08778 -11.937623
25.539818 232.08414 -11.943115
25.569767 232.08974 -11.950677
25.600412 232.09206 -11.955097
25.619503 232.09845 -11.950124
25.645088 232.09488 -11.951854
25.502928 232.11804 -11.945793
25.513721 232.10739 -11.941595
25.558281 232.10988 -11.950516
25.680235 232.12735 -11.953397
25.706211 232.11974 -11.947946
25.47838 232.15343 -11.950426
25.491592 232.13713 -11.948368
25.679005 232.13271 -11.937902
25.699739 232.13821 -11.951838
25.715437 232.13623 -11.946198
25.475014 232.1702 -11.955213
25.48703 232.16599 -11.951697
25.507898 232.16451 -11.950799
25.470034 232.19363 -11.957638
25.466352 232.20671 -11.959417
25.425156 232.33167 -11.956837
25.432596 232.32918 -11.955688
25.421442 232.35149 -11.951958
25.428825 232.3412 -11.958011
25.968197 232.3573 -11.953281
25.97691 232.34952 -11.958179
26.001451 232.3506 -11.957529
25.416422 232.3732 -11.945868
25.934498 232.38179 -11.94639
25.408237 232.40019 -11.94033
25.909397 232.39612 -11.937137
25.929462 232.39359 -11.940699
25.950998 232.39479 -11.944168
25.401684 232.43619 -11.954805
25.40826 232.42256 -11.934299
25.895809 232.4173 -11.956448
25.361607 232.46346 -11.937725
25.39006 232.45032 -11.941154
25.861107 232.45901 -11.942869
25.890423 232.44737 -11.952887
25.381271 232.46692 -11.936352
25.219452 231.98897 -11.918676
25.242756 231.97998 -11.931477
25.2367 232.01619 -11.911814
25.251869 232.01717 -11.913931
25.272205 232.02081 -11.923732
25.557774 232.02368 -11.91597
25.245087 232.02562 -11.913531
25.260368 232.02867 -11.918429
25.287691 232.03955 -11.924716
25.306171 232.04446 -11.920524
25.551483 232.03674 -11.932374
25.289867 232.06769 -11.916896
25.302458 232.05266 -11.924633
25.334929 232.05399 -11.920166
25.361706 232.05527 -11.91303
25.388687 232.05704 -11.911783
25.420135 232.07254 -11.912259
25.434774 232.07181 -11.91683
25.462576 232.07347 -11.919571
25.426361 232.07729 -11.912043
25.440128 232.08049 -11.915838
25.467676 232.08328 -11.922148
25.496071 232.08289 -11.923023
25.512365 232.08351 -11.921568
25.545063 232.07941 -11.921954
25.568649 232.08472 -11.925385
25.250923 232.12747 -11.909951
25.677906 232.14131 -11.930367
25.694178 232.13705 -11.933842
25.75139 232.30531 -11.912174
25.746181 232.31314 -11.911399
25.458824 232.35641 -11.921306
25.776039 232.34186 -11.920665
25.456673 232.36848 -11.930009
25.783546 232.38576 -11.90817
25.875315 232.37732 -11.913656
25.979607 232.38368 -11.926374
25.404387 232.41383 -11.932609
25.787594 232.40977 -11.91786
25.804115 232.40195 -11.920603
25.8855 232.40784 -11.917871
25.912029 232.40228 -11.928016
25.927048 232.40192 -11.932025
25.398296 232.42963 -11.929853
25.418762 232.42432 -11.919636
25.432384 232.423 -11.924716
25.819641 232.4151 -11.908358
25.886356 232.4287 -11.911211
25.90568 232.42093 -11.922211
25.922176 232.42061 -11.913361
25.390236 232.4552 -11.922276
25.410419 232.45715 -11.925811
25.865057 232.45 -11.921657
25.875244 232.45195 -11.909004
25.367662 232.47546 -11.914554
25.388966 232.47368 -11.913603
25.211576 231.99261 -11.90244
25.230659 232.00519 -11.89814
25.250118 232.00841 -11.902534
25.513172 232.0009 -11.886108
25.564793 232.01889 -11.895389
25.24123 232.03036 -11.899029
25.263931 232.04065 -11.900945
25.283464 232.03859 -11.893646
25.303167 232.0441 -11.898834
25.528934 232.02632 -11.882401
25.540558 232.04741 -11.891968
25.284422 232.06357 -11.886429
25.312788 232.05981 -11.892054
25.342331 232.06979 -11.887995
25.359537 232.06708 -11.893702
25.38744 232.06767 -11.899212
25.408276 232.07214 -11.897943
25.530884 232.05446 -11.900545
25.5406 232.06071 -11.896781
25.563755 232.0757 -11.904491
25.316597 232.08116 -11.887165
25.363226 232.07774 -11.89022
25.396425 232.08052 -11.902473
25.40839 232.08072 -11.904458
25.445358 232.07712 -11.906153
25.517685 232.0827 -11.905745
25.269012 232.12436 -11.893414
25.287998 232.10999 -11.886038
25.307751 232.11163 -11.895742
25.243656 232.15341 -11.885073
25.257303 232.14233 -11.888984
25.280014 232.14339 -11.889117
25.24539 232.15834 -11.886584
25.2542 232.15877 -11.885961
25.70138 232.20374 -11.887129
25.653061 232.21414 -11.886096
25.675365 232.21684 -11.890361
25.705101 232.22954 -11.882828
25.685287 232.23442 -11.882322
25.700859 232.24625 -11.889296
25.723915 232.24149 -11.887615
25.70916 232.26813 -11.897608
25.727863 232.26706 -11.893381
25.747437 232.27426 -11.889674
25.735144 232.29666 -11.89688
25.751732 232.29868 -11.898582
25.748844 232.32254 -11.896494
25.75915 232.34492 -11.898223
25.770836 232.35471 -11.901117
25.792938 232.35301 -11.897971
25.777782 232.37289 -11.901196
25.88599 232.36981 -11.882962
25.784485 232.403 -11.8909
25.805128 232.40289 -11.898724
25.806715 232.41978 -11.891303
25.827797 232.42755 -11.895691
25.865351 232.43695 -11.902774
25.882437 232.43246 -11.902553
25.911224 232.42685 -11.888783
25.413818 232.45473 -11.899656
25.840733 232.45038 -11.891582
25.858244 232.45078 -11.893297
25.874149 232.45026 -11.901639
25.896189 232.4476 -11.904471
25.403242 232.49001 -11.904232
25.836582 232.48108 -11.893189
25.851871 232.47241 -11.889602
25.830528 232.49765 -11.889259
25.84602 232.51257 -11.882435
25.516819 231.9975 -11.871487
25.5345 231.99551 -11.859867
25.213707 232.01846 -11.875463
25.519161 232.0081 -11.874328
25.538549 232.01096 -11.867587
25.562117 232.02293 -11.864317
25.232933 232.03241 -11.867919
25.255594 232.04422 -11.871085
25.273304 232.04942 -11.872698
25.550734 232.03714 -11.874265
25.567028 232.03854 -11.86574
25.261858 232.05542 -11.872263
25.289909 232.06248 -11.865477
25.311117 232.06795 -11.868917
25.334791 232.06996 -11.877549
25.364771 232.0724 -11.881563
25.290714 232.09106 -11.870056
25.308561 232.08435 -11.871482
25.325275 232.07939 -11.876168
25.364119 232.07886 -11.874728
25.388969 232.08049 -11.865571
25.46452 232.09564 -11.868181
25.488991 232.09837 -11.879159
25.508247 232.09476 -11.875408
25.266628 232.11006 -11.875401
25.315624 232.10776 -11.87993
25.467077 232.10783 -11.862901
25.257717 232.1459 -11.879538
25.248459 232.16226 -11.878727
25.680582 232.21973 -11.87077
25.704388 232.22427 -11.864174
25.716129 232.22702 -11.87536
25.696974 232.2364 -11.868053
25.72611 232.23674 -11.871226
25.759628 232.32339 -11.874946
25.884693 232.35452 -11.868206
25.898365 232.37868 -11.878788
25.780451 232.40918 -11.869519
25.800432 232.40765 -11.874081
25.881504 232.40125 -11.86797
25.903847 232.40718 -11.860061
25.782017 232.41449 -11.868108
25.878977 232.41479 -11.868689
25.835081 232.48615 -11.871035
25.81543 232.5051 -11.861906
25.828796 232.50005 -11.868681
25.796644 232.52792 -11.865301
25.827942 232.52878 -11.857061
25.578268 231.99661 -11.843445
25.595181 231.98714 -11.831645
25.625927 231.99231 -11.843733
25.192913 232.01913 -11.844622
25.208973 232.0161 -11.845862
25.264568 232.01288 -11.850234
25.574169 232.0105 -11.847647
25.601765 232.0119 -11.841497
25.21018 232.03098 -11.846611
25.262785 232.03987 -11.852365
25.58049 232.02441 -11.85117
25.598349 232.03069 -11.841294
25.241142 232.05652 -11.837898
25.260078 232.06377 -11.838584
25.276005 232.06276 -11.8486
25.309963 232.06731 -11.839386
25.325638 232.0714 -11.85312
25.294937 232.07747 -11.84766
25.34429 232.08197 -11.84746
25.425295 232.12401 -11.839549
25.447689 232.11526 -11.839293
25.457632 232.11252 -11.847774
25.481689 232.10899 -11.839677
25.886332 232.38164 -11.843358
25.89992 232.3877 -11.837675
25.755529 232.40826 -11.851295
25.905731 232.39456 -11.844681
25.757881 232.41635 -11.850867
25.809755 232.51093 -11.847141
25.828529 232.5067 -11.848595
25.845917 232.50766 -11.853213
25.786877 232.52875 -11.841578
25.80072 232.52844 -11.836924
25.836025 232.52113 -11.833652
25.630287 231.88789 -11.806282
25.634958 231.91713 -11.807817
25.636494 231.90271 -11.815431
25.629898 231.93744 -11.812357
25.609688 231.9606 -11.817554
25.616577 231.95567 -11.814197
25.64698 231.96045 -11.809425
25.596889 231.97943 -11.826542
25.189461 232.02217 -11.819036
25.207895 232.01753 -11.819302
25.23151 232.0191 -11.827756
25.606621 232.00612 -11.827013
25.181305 232.02586 -11.809744
25.206675 232.04056 -11.816393
25.226971 232.04675 -11.816528
25.214449 232.05341 -11.810011
25.269976 232.06589 -11.805544
25.437195 232.12497 -11.816501
25.476288 232.11203 -11.823188
25.418463 232.13705 -11.810266
25.434235 232.13327 -11.814885
25.904469 232.37553 -11.824204
25.81498 232.49927 -11.820853
25.78462 232.53654 -11.820958
25.797272 232.53482 -11.824284
25.827663 232.54037 -11.806703
25.759756 232.55164 -11.807277
25.77866 232.5529 -11.813544
25.795588 232.5571 -11.821806
25.746746 232.58267 -11.810289
25.722092 232.61314 -11.819436
25.698166 232.63391 -11.816138
25.718662 232.63792 -11.805174
25.68091 232.65585 -11.805622
25.547977 232.70171 -11.806631
25.631653 231.87602 -11.798882
25.631006 231.89494 -11.797524
25.637926 231.90862 -11.797846
25.647543 231.92926 -11.798078
25.670935 231.93649 -11.782202
25.68907 231.93309 -11.789391
25.631882 231.94725 -11.801373
25.646484 231.9693 -11.783086
25.185175 232.01723 -11.801373
25.216335 232.02386 -11.793886
25.161392 232.03287 -11.787521
25.182341 232.03648 -11.784302
25.201614 232.03723 -11.796569
25.205711 232.05447 -11.796772
25.228491 232.05588 -11.785477
25.256119 232.05397 -11.780203
25.459396 232.11821 -11.789902
25.41597 232.14417 -11.792194
25.439674 232.14122 -11.785638
25.46059 232.14514 -11.783669
25.332317 232.15665 -11.783689
25.370235 232.15477 -11.796246
25.38039 232.16479 -11.781914
25.41127 232.1599 -11.79904
25.805244 232.54291 -11.803864
25.75802 232.56104 -11.798338
25.776703 232.56282 -11.801653
25.73646 232.5784 -11.783255
25.753115 232.57845 -11.786488
25.771696 232.58496 -11.789031
25.711155 232.61989 -11.778351
25.724064 232.61197 -11.785658
25.750107 232.60449 -11.778782
25.704098 232.63177 -11.788268
25.73078 232.62622 -11.783083
25.748268 232.62668 -11.783698
25.653168 232.6629 -11.782359
25.670036 232.65778 -11.786913
25.466042 232.69095 -11.790793
25.542538 232.69521 -11.791313
25.567627 232.69295 -11.795206
25.601208 232.69482 -11.789347
25.626926 232.68396 -11.784879
25.637188 232.6785 -11.778917
25.433882 232.70023 -11.799173
25.514032 232.70451 -11.780027
25.53742 232.70616 -11.783771
25.574421 232.71147 -11.783094
25.591587 232.7016 -11.78425
25.677769 231.91718 -11.757045
25.094994 232.02151 -11.776821
25.133886 232.03688 -11.761396
25.17943 232.03406 -11.770688
25.23196 232.03397 -11.772223
25.243866 232.05049 -11.754206
25.373241 232.15021 -11.769126
25.412868 232.14853 -11.767883
25.314526 232.1609 -11.755991
25.345724 232.17056 -11.756828
25.37052 232.17017 -11.759379
25.386675 232.16486 -11.762115
25.407003 232.16112 -11.768569
25.43487 232.15753 -11.770658
25.751316 232.56407 -11.773865
25.734791 232.58842 -11.771862
25.750534 232.58702 -11.774489
25.793083 232.57362 -11.773937
25.726994 232.60936 -11.759542
25.749964 232.60718 -11.764544
25.729242 232.63789 -11.772573
25.706203 232.65985 -11.775747
25.467506 232.69656 -11.764808
25.55476 232.69647 -11.759835
25.597429 232.69684 -11.775585
25.637787 232.69083 -11.775133
25.463629 232.70708 -11.767868
25.487747 232.70752 -11.76887
25.524191 232.7075 -11.77333
25.550028 232.70737 -11.773984
25.568327 232.71297 -11.769336
25.587845 232.70801 -11.772217
25.554787 232.73976 -11.755093
25.560078 232.73805 -11.753704
25.108011 232.03763 -11.735111
25.125475 232.03868 -11.737873
25.143631 232.04089 -11.745392
25.177589 232.0379 -11.739194
25.10475 232.05005 -11.730412
25.240664 232.13293 -11.743315
25.265013 232.14752 -11.729427
25.267904 232.16003 -11.728123
25.285273 232.16057 -11.73577
25.31185 232.16682 -11.741924
25.337179 232.17166 -11.745547
25.361401 232.17413 -11.742346
25.431744 232.16634 -11.726973
25.338181 232.19302 -11.745958
25.399899 232.19167 -11.734677
25.443054 232.1812 -11.744629
25.7467 232.56248 -11.739147
25.739805 232.57892 -11.733501
25.747488 232.58934 -11.736785
25.7337 232.59796 -11.738842
25.755854 232.60614 -11.746575
25.550261 232.74651 -11.746181
25.558146 232.73836 -11.745924
25.54401 232.76239 -11.733865
25.530682 232.78081 -11.736437
25.53273 232.77979 -11.727806
25.084097 232.04059 -11.705356
25.102674 232.0394 -11.714132
25.218536 232.10896 -11.700113
25.234045 232.13846 -11.712189
25.254452 232.14426 -11.716898
25.432108 232.14725 -11.724895
25.259018 232.15958 -11.723865
25.279823 232.15794 -11.71251
25.313154 232.16061 -11.719234
25.335068 232.17915 -11.718782
25.416042 232.16678 -11.708457
25.429253 232.16359 -11.709153
25.335909 232.20175 -11.713719
25.368528 232.19301 -11.714786
25.334408 232.20926 -11.710558
25.385483 232.20865 -11.712634
25.734024 232.59314 -11.717709
25.754255 232.58414 -11.707799
25.776775 232.58838 -11.711502
25.762142 232.59885 -11.701344
25.539242 232.76582 -11.725055
25.527287 232.79709 -11.706505
25.540407 232.78972 -11.709317
25.528887 232.81456 -11.706515
25.535896 232.80824 -11.724031
25.056248 232.04034 -11.679308
25.076473 232.04085 -11.688064
25.076763 232.05115 -11.690788
25.116505 232.05025 -11.689472
25.156425 232.09047 -11.692837
25.152052 232.11227 -11.685484
25.189983 232.12222 -11.693797
25.210621 232.13736 -11.683953
25.226742 232.13574 -11.698017
25.248491 232.13139 -11.699869
25.434418 232.14929 -11.680081
25.423332 232.1637 -11.694315
25.435858 232.166 -11.685966
25.463772 232.16467 -11.685165
25.366312 232.1965 -11.69123
25.390495 232.20468 -11.696598
25.368177 232.21393 -11.68552
25.401337 232.22208 -11.674575
25.750463 232.58649 -11.686381
25.77734 232.58894 -11.688673
25.539473 232.80341 -11.698336
25.537374 232.81323 -11.696043
25.030983 232.03453 -11.660797
25.049904 232.04736 -11.654823
25.06465 232.04431 -11.660665
25.056767 232.05746 -11.659002
25.072155 232.06143 -11.660786
25.099495 232.05295 -11.652977
25.154903 232.08369 -11.651222
25.158382 232.11264 -11.656016
25.179106 232.12756 -11.649661
25.236729 232.12442 -11.656738
25.455112 232.11903 -11.664364
25.18461 232.13177 -11.667009
25.200737 232.1319 -11.669788
25.248518 232.1436 -11.673263
25.449394 232.1512 -11.658824
25.459446 232.13864 -11.661659
25.440052 232.16595 -11.668621
25.458769 232.16658 -11.661063
25.44121 232.19397 -11.668789
25.370663 232.22418 -11.668323
25.376114 232.22627 -11.669218
25.37009 232.23869 -11.663863
25.37673 232.24106 -11.654082
25.368542 232.26357 -11.651298
25.392887 232.28745 -11.655154
25.747437 232.59229 -11.669257
25.775904 232.59775 -11.670797
25.792307 232.59978 -11.672844
25.0273 232.04819 -11.635666
25.046673 232.04791 -11.637942
25.030075 232.05594 -11.635117
25.043602 232.05237 -11.637264
25.065105 232.05684 -11.640975
25.129292 232.0889 -11.622089
25.169437 232.08411 -11.625088
25.134914 232.1149 -11.626803
25.149105 232.11751 -11.630189
25.17868 232.12354 -11.626326
25.197502 232.12146 -11.63689
25.137548 232.14119 -11.6468
25.14469 232.13416 -11.642693
25.193872 232.13242 -11.632975
25.367062 232.25688 -11.643908
25.37809 232.25334 -11.64396
25.373714 232.27151 -11.635885
25.378761 232.27507 -11.635792
25.412304 232.27841 -11.632839
25.389389 232.29291 -11.628213
25.39056 232.31923 -11.623843
24.979998 232.04198 -11.61511
25.003235 232.0573 -11.608318
25.020781 232.05661 -11.613559
25.127327 232.09427 -11.602136
25.18092 232.10144 -11.603101
25.128088 232.11229 -11.60427
25.156586 232.11166 -11.606574
25.178368 232.11716 -11.60857
25.41325 232.25484 -11.619993
25.386513 232.30096 -11.60895
25.388273 232.31477 -11.598638
24.976492 232.04141 -11.592176
24.976917 232.0603 -11.579016
24.999384 232.06337 -11.587481
25.11422 232.09456 -11.593618
25.116375 232.10133 -11.576827
25.10446 232.10553 -11.571957
25.123783 232.11241 -11.5828
25.145617 232.10974 -11.582934
25.415539 232.32727 -11.570737
25.380457 232.34114 -11.575619
24.941917 232.04887 -11.565119
24.931797 232.06104 -11.552536
24.95919 232.06616 -11.554724
24.972691 232.0672 -11.560057
25.421089 232.33458 -11.549004
25.369411 232.3428 -11.564279
25.427105 232.34712 -11.551384
24.922302 232.01559 -11.522103
24.932751 232.0448 -11.527095
24.943672 232.04745 -11.528625
24.932007 232.06905 -11.52397
24.944498 232.06728 -11.536218
24.962193 232.05763 -11.518419
24.933338 232.07812 -11.520082
24.934862 232.08615 -11.519957
25.088018 232.0943 -11.530019
25.09565 232.09857 -11.522484
25.100878 232.10608 -11.533902
25.116476 232.11494 -11.536811
24.923782 232.01601 -11.501455
24.94416 232.0119 -11.503611
24.928806 232.03494 -11.511791
24.936125 232.03587 -11.510986
24.960976 232.04329 -11.494585
24.900562 232.06633 -11.501143
24.9244 232.07428 -11.510273
24.882805 232.08266 -11.49791
24.912334 232.08046 -11.502167
24.936176 232.07628 -11.515023
25.085209 232.10359 -11.512774
25.10746 232.11449 -11.512627
24.924965 232.01256 -11.484728
24.952023 232.01625 -11.482584
24.895634 232.08646 -11.482168
24.887489 232.08444 -11.456229
24.917969 232.09785 -11.453273
24.865772 232.10692 -11.45381
24.919859 232.09406 -11.428341
24.850758 232.10497 -11.425812
24.838428 232.10872 -11.40059
24.823082 232.11505 -11.374811
24.848759 232.11362 -11.367126
24.828413 232.13461 -11.378716
24.85017 232.12959 -11.373692
24.816872 232.11806 -11.35587
24.870235 232.12228 -11.338346
24.804138 232.12495 -11.32786
24.794315 232.13443 -11.318829
24.805882 232.13092 -11.322201
24.84403 232.13205 -11.333572
24.788771 232.14273 -11.297537
24.814949 232.15314 -11.301588
24.77149 232.15161 -11.268936
24.781256 232.14499 -11.277907
24.770142 232.15428 -11.267254
27.338806 232.03233 -12.118224
27.054491 231.41328 -12.103707
27.082127 231.41988 -12.102086
27.0952 231.41986 -12.091391
27.049854 231.42819 -12.113804
27.077068 231.44446 -12.101389
27.101404 231.44743 -12.111473
27.118052 231.45105 -12.114004
27.062117 231.46715 -12.102942
27.078804 231.47069 -12.106367
27.101376 231.4691 -12.111011
27.080494 231.48395 -12.109283
27.097668 231.48276 -12.113592
27.028954 231.65903 -12.114143
27.026377 231.67764 -12.092529
27.044962 231.6722 -12.114564
27.025831 231.69287 -12.099367
27.050152 231.69615 -12.103927
27.323624 232.01758 -12.100595
27.33424 232.0218 -12.104516
27.357979 232.01128 -12.101063
27.323498 232.02475 -12.102373
27.335674 232.02684 -12.108322
27.35936 232.02577 -12.112844
27.056343 231.39746 -12.072003
27.066963 231.39883 -12.065595
27.034687 231.4063 -12.073703
27.050743 231.41199 -12.075613
27.081799 231.40918 -12.07135
27.100899 231.42137 -12.078102
27.060163 231.44588 -12.079419
27.084562 231.44891 -12.078776
27.101477 231.44745 -12.0762
27.12693 231.44342 -12.085726
27.05526 231.46635 -12.074287
27.081051 231.46484 -12.079797
27.105457 231.46538 -12.069757
27.05827 231.48032 -12.073557
27.073368 231.48105 -12.076397
27.021755 231.68224 -12.072802
27.042011 231.67593 -12.083954
27.024307 231.69164 -12.07458
27.042496 231.69031 -12.069138
27.262693 231.99788 -12.071258
27.328857 231.99527 -12.0692
27.29208 232.01019 -12.067135
27.308395 232.01419 -12.079395
27.363083 232.01697 -12.075178
27.32024 232.02673 -12.089819
27.331284 232.0251 -12.089816
27.029007 231.39368 -12.048476
27.054756 231.39453 -12.04862
27.067589 231.37903 -12.045488
27.036043 231.40669 -12.052222
27.042898 231.40662 -12.052973
27.030375 231.44649 -12.048841
27.056564 231.44601 -12.045944
27.078693 231.44565 -12.05133
27.038479 231.46243 -12.043755
27.053463 231.46758 -12.052505
27.073196 231.4655 -12.048821
27.051003 231.47969 -12.04566
27.086159 231.50148 -12.058952
27.032486 231.64977 -12.057337
27.009047 231.67404 -12.044537
27.023602 231.67642 -12.05048
27.041866 231.6799 -12.049871
27.01022 231.69638 -12.043807
27.019703 231.68921 -12.050821
27.021194 231.72044 -12.040468
27.233377 231.99672 -12.048307
27.269882 231.99048 -12.042769
27.311272 231.98889 -12.049358
27.270781 232.00842 -12.04425
27.286783 232.00932 -12.055545
27.376305 232.02124 -12.05546
27.291883 232.02768 -12.059525
27.004498 231.3701 -12.015654
27.027163 231.39003 -12.02562
27.05835 231.38737 -12.025597
27.072796 231.39049 -12.017118
27.03581 231.40402 -12.028715
27.046532 231.40616 -12.029901
27.039083 231.44695 -12.013525
27.048061 231.44711 -12.017639
27.012749 231.46753 -12.02008
27.030409 231.46686 -12.022651
27.053108 231.46832 -12.022844
27.072996 231.46136 -12.025326
27.035618 231.48682 -12.027655
27.048271 231.48141 -12.026551
27.009878 231.68007 -12.026258
27.023548 231.68005 -12.027596
27.008423 231.7029 -12.026703
27.022474 231.69873 -12.029385
27.023762 231.72191 -12.027093
27.021532 231.7515 -12.016398
27.263027 231.97052 -12.013456
27.275776 231.9612 -12.013683
27.21574 231.98215 -12.0159
27.232561 231.99522 -12.017838
27.260479 231.99271 -12.01733
27.280472 231.98674 -12.022184
27.30204 231.98395 -12.01829
27.244968 232.00772 -12.016416
27.261061 232.00658 -12.028539
27.292763 232.01111 -12.027864
27.009586 231.37161 -11.998891
27.009115 231.38255 -12.001509
27.022768 231.3844 -11.995446
27.04892 231.38538 -11.999008
27.066872 231.39604 -11.994386
27.090073 231.40509 -11.995879
27.035072 231.44336 -11.996645
27.051083 231.44843 -11.998013
27.010078 231.46373 -11.996773
27.023239 231.46451 -11.997406
27.051434 231.46599 -12.002462
27.072392 231.45963 -11.990969
27.101028 231.47165 -12.001162
27.027374 231.47929 -11.999711
27.048218 231.4827 -12.002762
27.006626 231.67307 -12.000558
27.028179 231.67731 -11.996737
27.028118 231.69478 -12.001915
27.004196 231.73773 -12.011138
27.023449 231.72548 -11.999871
26.953703 231.75375 -11.993643
27.000057 231.74767 -12.003825
27.024048 231.76117 -11.990499
26.977781 231.77623 -11.990859
26.994631 231.77003 -11.991396
27.015739 231.77083 -11.990891
27.295876 231.85564 -11.988119
27.33086 231.84947 -11.998857
27.344074 231.87215 -11.996284
27.312012 231.91045 -12.002323
27.282696 231.93044 -11.991808
27.186752 231.96651 -11.999954
27.273846 231.96648 -12.007254
27.282129 231.95654 -12.001056
27.155603 231.98312 -11.996899
27.18195 231.98312 -11.993941
27.213142 231.99045 -11.994606
27.235661 231.99352 -11.998691
27.262136 231.98541 -12.002131
27.123894 231.99823 -11.986675
27.220846 232.00128 -11.988661
27.231365 232.00145 -11.997101
27.255516 232.00146 -12.005186
27.274561 231.99997 -12.011482
26.978148 231.36401 -11.967947
27.000484 231.3667 -11.974018
27.023787 231.36942 -11.969285
27.005499 231.37585 -11.966459
27.02986 231.37845 -11.973904
27.059654 231.38136 -11.965421
27.032078 231.44835 -11.978781
27.042976 231.45184 -11.973545
27.008034 231.46771 -11.976246
27.028421 231.46634 -11.97316
27.051079 231.46463 -11.976835
27.011646 231.48853 -11.977419
27.027527 231.48198 -11.978892
27.011425 231.65816 -11.962887
27.000912 231.67125 -11.974021
27.025951 231.67268 -11.968241
26.961506 231.73633 -11.96814
26.923695 231.74791 -11.961805
26.961956 231.76138 -11.970542
26.970936 231.75983 -11.969838
27.031042 231.76044 -11.969273
26.950632 231.77034 -11.967891
26.969852 231.77736 -11.978844
27.000931 231.7804 -11.971698
27.02313 231.77879 -11.979006
26.92935 231.80754 -11.965028
26.951056 231.79739 -11.972728
26.972815 231.79825 -11.979233
27.297659 231.84033 -11.971012
27.294815 231.85815 -11.968475
27.302015 231.85367 -11.969263
27.290205 231.875 -11.972167
27.312283 231.88342 -11.96767
27.335026 231.88663 -11.971243
27.285017 231.91055 -11.973737
27.306519 231.90311 -11.970918
27.290003 231.93326 -11.979585
27.311283 231.92554 -11.981107
27.172546 231.9613 -11.969645
27.284281 231.94739 -11.974676
27.130579 231.9939 -11.982798
27.163656 231.98395 -11.978825
27.190586 231.98877 -11.970085
27.205875 231.99051 -11.976724
27.234516 231.99254 -11.97774
27.304306 231.97345 -11.98499
27.209663 232.00053 -11.977528
27.238186 232.00305 -11.973442
27.109966 232.03229 -11.962193
27.040245 231.34126 -11.943694
26.982306 231.35429 -11.944182
26.996784 231.36491 -11.948679
27.023367 231.3616 -11.948951
27.047684 231.37201 -11.955699
27.009357 231.3775 -11.953488
26.997499 231.45073 -11.953089
27.026487 231.44852 -11.9429
27.001255 231.46523 -11.944798
27.072815 231.47762 -11.935551
27.001867 231.48376 -11.943219
27.022612 231.48347 -11.949254
27.000854 231.65227 -11.94651
26.998417 231.66945 -11.949183
27.026171 231.67079 -11.940197
26.925678 231.75598 -11.953327
26.936455 231.74951 -11.94981
26.905441 231.77966 -11.936942
26.924158 231.76811 -11.953905
26.947075 231.7646 -11.957541
27.011492 231.77751 -11.955484
27.02438 231.77715 -11.945532
27.053513 231.78131 -11.942403
26.915308 231.80048 -11.952702
27.324238 231.88806 -11.949198
27.333511 231.88382 -11.946336
27.36591 231.88753 -11.943987
27.321949 231.90009 -11.950521
27.34087 231.90129 -11.9415
27.275818 231.95877 -11.953972
27.134516 231.97629 -11.941916
27.163584 231.9825 -11.942603
27.177151 231.98804 -11.948143
27.204533 231.98753 -11.957237
27.121964 232.02675 -11.951638
26.958363 231.29448 -11.923563
26.932198 231.32002 -11.912816
26.94508 231.31378 -11.911865
26.964651 231.3136 -11.91947
26.955101 231.33093 -11.912263
26.972359 231.3364 -11.915401
26.991667 231.33563 -11.913779
26.961756 231.35497 -11.917298
26.980742 231.3571 -11.924992
26.997206 231.35831 -11.928245
27.031319 231.36418 -11.92519
27.003784 231.44412 -11.924837
27.051441 231.44666 -11.922364
26.946901 231.47009 -11.915575
26.979958 231.46916 -11.918637
26.998487 231.46623 -11.922463
27.021526 231.46454 -11.923841
27.052197 231.46576 -11.916193
26.977238 231.49077 -11.917937
26.997707 231.49222 -11.919197
27.052059 231.47995 -11.909061
26.977777 231.51228 -11.914296
26.966391 231.53946 -11.911852
26.982529 231.65842 -11.914789
27.010855 231.65634 -11.927326
27.014057 231.65509 -11.921391
26.984064 231.66684 -11.920826
26.992777 231.66647 -11.919695
27.022179 231.66692 -11.918206
26.977331 231.68814 -11.92753
26.947769 231.74081 -11.931873
27.034063 231.78462 -11.933965
27.337482 231.88544 -11.925317
27.356207 231.88266 -11.930191
27.121935 231.96759 -11.921152
27.162434 231.96202 -11.918566
27.185019 231.95828 -11.911324
27.11343 231.97321 -11.920463
27.130583 231.98123 -11.918418
27.156361 231.98476 -11.925372
27.180367 231.98608 -11.929082
27.131828 232.0135 -11.926839
27.157637 232.01144 -11.928151
27.111111 232.04175 -11.919512
27.123449 232.03494 -11.91925
27.09193 232.06422 -11.909298
27.107975 232.06329 -11.912516
27.118017 232.06541 -11.916044
27.103203 232.09171 -11.913348
27.080795 232.11731 -11.918538
27.099543 232.10966 -11.91136
26.875599 231.23752 -11.892172
26.879614 231.25696 -11.884758
26.88879 231.2695 -11.885966
26.914412 231.28398 -11.90011
26.956772 231.28633 -11.888374
26.920179 231.30205 -11.904325
26.939518 231.31685 -11.900419
26.977036 231.32167 -11.894237
26.954155 231.33302 -11.898828
26.968975 231.33984 -11.897916
26.997463 231.33865 -11.88839
26.960333 231.35132 -11.905807
26.977905 231.35538 -11.899428
26.950211 231.46826 -11.895248
26.979456 231.46466 -11.894623
27.004196 231.4673 -11.898252
27.025299 231.46201 -11.904323
26.955915 231.48889 -11.898791
26.976021 231.49048 -11.894878
27.002634 231.49564 -11.898371
27.014858 231.4805 -11.900037
26.958136 231.51854 -11.891131
26.973936 231.51854 -11.896471
26.992256 231.51393 -11.891894
26.959103 231.53433 -11.889375
26.968746 231.53398 -11.889751
26.983212 231.62561 -11.896622
27.003191 231.6246 -11.883512
26.97897 231.64529 -11.888743
26.995901 231.65509 -11.893076
26.981747 231.66284 -11.896365
26.996023 231.66698 -11.897925
27.16856 231.94223 -11.895231
27.183502 231.929 -11.884998
27.201439 231.93236 -11.890227
27.083286 231.96478 -11.884202
27.161158 231.96024 -11.897629
27.177921 231.94681 -11.893469
27.10747 231.97835 -11.890267
27.098576 232.07112 -11.903295
27.084911 232.08896 -11.899614
27.097027 232.08342 -11.900905
27.119637 232.08994 -11.888932
27.081074 232.11592 -11.888877
27.119629 232.11012 -11.897573
27.062479 232.14597 -11.88356
27.076914 232.14049 -11.891232
27.056654 232.15814 -11.887477
27.094641 232.15494 -11.891088
26.821409 231.15398 -11.863754
26.823357 231.17564 -11.859628
26.747612 231.20108 -11.876709
26.825127 231.19283 -11.865865
26.852993 231.20187 -11.861115
26.747555 231.21834 -11.859676
26.770411 231.22867 -11.871557
26.788631 231.23169 -11.866753
26.814472 231.23145 -11.861884
26.839989 231.23029 -11.863243
26.868134 231.23679 -11.867004
26.912048 231.25891 -11.879837
26.899315 231.27295 -11.878642
26.960381 231.31111 -11.868831
26.986507 231.34224 -11.877137
26.992878 231.336 -11.874182
27.017235 231.35202 -11.869258
27.00465 231.44797 -11.868053
26.926258 231.46596 -11.867151
26.944708 231.46518 -11.86838
26.981159 231.46228 -11.87221
26.992332 231.47479 -11.880735
27.020962 231.46716 -11.873398
26.957817 231.48033 -11.877052
26.955748 231.52647 -11.879078
26.983654 231.50507 -11.864471
26.998524 231.51917 -11.869016
26.952074 231.54416 -11.869701
26.96698 231.54121 -11.871538
27.017731 231.53091 -11.860405
26.940372 231.55908 -11.857965
26.994642 231.57471 -11.866362
26.978006 231.59592 -11.861383
27.003777 231.60367 -11.86762
26.976036 231.6219 -11.869057
27.004866 231.621 -11.862841
26.975704 231.64989 -11.871527
27.000885 231.64645 -11.8757
27.014488 231.64746 -11.880239
26.975462 231.66119 -11.861917
26.990759 231.66719 -11.873514
27.304995 231.80893 -11.869404
27.258686 231.83035 -11.867516
27.288506 231.83165 -11.859369
27.28565 231.85974 -11.856207
27.206539 231.89264 -11.866714
27.184258 231.90797 -11.869899
27.21106 231.90601 -11.871534
27.181337 231.92715 -11.875643
27.035633 231.94954 -11.865859
27.078157 231.96596 -11.864586
27.0973 231.9671 -11.880665
27.119335 231.95395 -11.869293
27.065708 231.97992 -11.864605
27.07752 231.97734 -11.865027
27.101572 231.97928 -11.873868
27.131428 231.97626 -11.880575
27.146832 231.97743 -11.878942
27.09774 232.10493 -11.879045
27.078232 232.1402 -11.872581
27.08456 232.1676 -11.868673
27.089842 232.18619 -11.871665
26.847782 231.06036 -11.830926
26.805643 231.08279 -11.834974
26.820585 231.07935 -11.838753
26.817844 231.09886 -11.840141
26.834036 231.09453 -11.832179
26.837933 231.13504 -11.855334
26.814625 231.15125 -11.849658
26.821461 231.17981 -11.849392
26.828297 231.19994 -11.849217
26.840349 231.20399 -11.846297
26.769865 231.23189 -11.845911
26.793329 231.23453 -11.851465
26.814564 231.23155 -11.848536
26.841354 231.22281 -11.853779
26.866686 231.2301 -11.855093
26.890156 231.2475 -11.849264
26.945122 231.43124 -11.83536
26.97624 231.44708 -11.851843
26.907965 231.46135 -11.835715
26.948406 231.46561 -11.842302
26.975306 231.45773 -11.833612
26.999695 231.46356 -11.832458
27.02816 231.46693 -11.8316
26.900385 231.48256 -11.835177
27.002476 231.49283 -11.835123
27.020981 231.49243 -11.839046
26.97558 231.52936 -11.849197
26.995579 231.51863 -11.839127
27.015518 231.5177 -11.846499
26.933519 231.54993 -11.840949
26.950977 231.54573 -11.846169
26.983654 231.54584 -11.846629
26.993486 231.54167 -11.840474
26.932501 231.55974 -11.835238
26.947897 231.56201 -11.84563
26.978571 231.56645 -11.843508
26.989136 231.5675 -11.844919
27.014004 231.57407 -11.854931
26.97883 231.59572 -11.846167
27.009771 231.59912 -11.845043
26.953648 231.62743 -11.835138
26.962835 231.63211 -11.841549
26.960091 231.65146 -11.842447
26.972414 231.65367 -11.841507
27.002905 231.6526 -11.845607
27.217947 231.81128 -11.852848
27.248703 231.80359 -11.853165
27.285152 231.80568 -11.837394
27.30891 231.80667 -11.841258
27.221909 231.8367 -11.833627
27.246256 231.81737 -11.83062
27.255156 231.83203 -11.842453
27.288563 231.81929 -11.841475
27.218571 231.8672 -11.850498
27.234182 231.85135 -11.844179
27.25288 231.86514 -11.842955
27.283253 231.85596 -11.851528
27.213087 231.87929 -11.848041
27.225544 231.89066 -11.854066
27.200291 231.89856 -11.850356
27.030792 231.96129 -11.830397
27.0539 231.96407 -11.845838
27.076694 231.96359 -11.84495
27.063747 231.97214 -11.842489
27.08091 231.97472 -11.843956
27.062805 232.14761 -11.834464
27.078705 232.15109 -11.832655
27.09288 232.13779 -11.830273
27.074799 232.16553 -11.844019
27.111908 232.16235 -11.841358
27.073318 232.18471 -11.854974
26.846258 231.02597 -11.810997
26.877266 231.02557 -11.807046
26.821686 231.05762 -11.821097
26.842735 231.04424 -11.814848
26.863302 231.04034 -11.818314
26.812269 231.07458 -11.825041
26.834547 231.1003 -11.818548
26.996811 231.39676 -11.804489
27.083893 231.38828 -11.810917
27.093513 231.38741 -11.805057
26.994612 231.42012 -11.808405
27.020264 231.41516 -11.812603
27.042103 231.40021 -11.817068
26.902334 231.45049 -11.814075
26.925117 231.44775 -11.810705
26.945143 231.4492 -11.824972
26.975031 231.42978 -11.805899
27.002592 231.44209 -11.812642
27.026402 231.44638 -11.817516
27.050056 231.44127 -11.812603
26.894304 231.46324 -11.813242
26.92095 231.45959 -11.820796
26.942381 231.45984 -11.821716
26.974365 231.46506 -11.820576
27.008732 231.46269 -11.820449
27.017113 231.46173 -11.811974
27.047398 231.45648 -11.806803
27.005262 231.49231 -11.829163
27.023947 231.48735 -11.823905
27.045185 231.49002 -11.827265
27.005756 231.51855 -11.824591
26.94508 231.55247 -11.828565
26.968704 231.54601 -11.829138
26.927359 231.57263 -11.819872
26.943987 231.57277 -11.820637
26.978928 231.56503 -11.819546
26.925999 231.59003 -11.809978
26.996902 231.58945 -11.811634
26.995396 231.62274 -11.818241
26.957645 231.64645 -11.817473
26.997219 231.65129 -11.820019
27.253975 231.78763 -11.809917
27.191208 231.79492 -11.822991
27.203251 231.80704 -11.827939
27.232084 231.80417 -11.821897
27.254362 231.80284 -11.814792
27.284185 231.79967 -11.822535
27.318115 231.80244 -11.826542
27.240944 231.83205 -11.824869
27.256702 231.8195 -11.826727
27.04356 231.96127 -11.821322
27.104706 232.12749 -11.823835
27.057596 232.15129 -11.821785
27.079069 232.15036 -11.826415
27.097878 232.14439 -11.829165
27.047485 232.15784 -11.828153
27.118969 232.16483 -11.826793
26.850719 231.0313 -11.798022
26.870623 231.02045 -11.791563
26.847223 231.04395 -11.801998
26.984451 231.36549 -11.783548
26.991137 231.36671 -11.780231
27.018503 231.36194 -11.781092
27.041386 231.36024 -11.780197
26.998106 231.38821 -11.788802
27.088135 231.39348 -11.796839
27.102619 231.39204 -11.790179
26.956381 231.41571 -11.786325
27.000816 231.41423 -11.793249
27.023216 231.41289 -11.797842
27.053877 231.41269 -11.782696
27.081388 231.41211 -11.7808
27.118073 231.40396 -11.802163
26.848366 231.42867 -11.779274
26.868717 231.44733 -11.783033
26.893799 231.44756 -11.790107
26.923355 231.44449 -11.78554
26.947912 231.43678 -11.789763
26.972359 231.43185 -11.792822
26.997574 231.43005 -11.789097
27.032068 231.43904 -11.79356
27.052547 231.43668 -11.791426
27.068012 231.43658 -11.789864
26.88028 231.45949 -11.779571
26.896936 231.46368 -11.794631
26.933084 231.4543 -11.793501
26.983154 231.45706 -11.787001
27.024193 231.45468 -11.794571
27.082443 231.45415 -11.785814
27.011078 231.47882 -11.798257
26.9275 231.57512 -11.79749
26.905697 231.59744 -11.786084
26.924364 231.59137 -11.790475
26.909702 231.61719 -11.794737
26.962742 231.62904 -11.796852
26.950916 231.64275 -11.786162
26.97506 231.64484 -11.793949
27.241571 231.78452 -11.791634
27.265265 231.77803 -11.793828
27.286789 231.77707 -11.798265
27.248299 231.79314 -11.798821
27.265265 231.82159 -11.79878
26.985535 231.94569 -11.785806
26.997717 231.93738 -11.790088
27.006418 231.95007 -11.785911
27.028358 231.95409 -11.798388
27.051682 231.95734 -11.80228
27.037727 231.97569 -11.802847
26.869308 231.02142 -11.775883
26.889481 231.03244 -11.765936
26.990664 231.35022 -11.772339
26.995956 231.38382 -11.767506
27.05859 231.39804 -11.762048
27.088377 231.38992 -11.765018
27.100887 231.38953 -11.766953
27.124409 231.3954 -11.765257
26.954779 231.41068 -11.777763
27.054993 231.41078 -11.766921
27.074816 231.40881 -11.760098
27.10116 231.40379 -11.764042
26.85445 231.43925 -11.772871
26.859844 231.43866 -11.777441
26.898649 231.44257 -11.772037
26.922733 231.4447 -11.770668
26.942356 231.44055 -11.767965
26.980228 231.42915 -11.762157
27.037262 231.44711 -11.777512
27.042316 231.4323 -11.777126
27.081738 231.43306 -11.757724
26.857252 231.47717 -11.755809
26.874256 231.46054 -11.757307
26.894569 231.46918 -11.768065
26.939232 231.5517 -11.762113
26.94046 231.56601 -11.752898
26.965546 231.58035 -11.770988
26.901691 231.60123 -11.766417
26.917215 231.59998 -11.763731
26.945232 231.59366 -11.766395
26.875061 231.62878 -11.760159
26.89967 231.61577 -11.759141
26.916578 231.61334 -11.761973
26.952524 231.63184 -11.759977
26.947933 231.64226 -11.76488
26.982391 231.64034 -11.765211
27.002972 231.64867 -11.753328
27.267452 231.76129 -11.765797
27.279118 231.7545 -11.761942
27.27071 231.76657 -11.776464
26.978422 231.93938 -11.760795
26.998409 231.93286 -11.766346
27.02446 231.94276 -11.774498
27.04537 231.94293 -11.753609
26.987389 231.94609 -11.774536
27.002483 231.95471 -11.763354
27.022709 231.95718 -11.76169
27.083817 231.39865 -11.746443
27.097672 231.38826 -11.73947
26.916 231.41531 -11.736126
27.079464 231.40604 -11.743675
27.096321 231.40274 -11.740863
27.119314 231.4008 -11.742942
26.856735 231.43484 -11.731589
26.871595 231.44009 -11.740607
26.897957 231.43909 -11.739439
26.924992 231.4328 -11.745277
26.966471 231.4415 -11.747166
26.855694 231.45824 -11.72684
26.872831 231.46069 -11.742648
26.962463 231.57733 -11.745296
26.898251 231.60724 -11.734199
26.879808 231.62541 -11.733401
26.894791 231.62019 -11.741408
26.922791 231.62439 -11.738985
26.968647 231.62308 -11.735914
26.886589 231.63486 -11.728671
