-22.36573029 7.44760609 8.44222260
-22.35183716 7.45865393 8.46514034
-22.35436058 7.45267105 8.44180107
-22.33297348 7.45542097 8.46360397
-20.06178284 7.50424099 -4.87588596
-20.05093002 7.51830196 -4.87526608
-20.03315544 7.52826500 -4.87416697
-20.01325035 7.53686094 -4.87258816
-20.00114822 7.54568386 -4.87607098
-19.98949242 7.55845594 -4.87468386
-20.18139648 7.57338381 -4.87535095
-20.16830254 7.58510399 -4.87375879
-19.98713112 7.57745600 -4.87513494
-20.15853882 7.60384607 -4.87665415
-20.14616966 7.61320400 -4.88111782
-20.08553696 7.65768623 -4.87557507
-20.17237091 7.51186085 -4.94238997
-20.13246536 7.50781012 -4.95043707
-20.14527893 7.51872921 -4.94945288
-20.10688782 7.48604488 -4.93121099
-20.15824890 7.51211309 -4.92621088
-20.11093712 7.49792480 -4.92568779
-20.18021393 7.53598118 -4.92648077
-20.16368675 7.52872705 -4.92466116
-19.99961472 7.60642195 -4.92644405
-19.99027061 7.60157013 -4.93155813
-20.02547455 7.63858604 -4.92695808
-20.01284790 7.62576580 -4.92980623
-20.03515244 7.64893293 -4.92675018
-20.08453369 7.50013018 -4.90055418
-20.18149567 7.53342819 -4.89800119
-20.20305443 7.55167007 -4.89390802
-20.18795967 7.55199718 -4.90200806
-19.98936653 7.55970287 -4.89878416
-20.20536613 7.56805992 -4.90210390
-19.98908806 7.57626581 -4.90129709
-20.17672920 7.59319019 -4.89169979
-20.00064659 7.60558414 -4.90208817
-19.99231911 7.59711790 -4.90244484
-20.13465118 7.62890577 -4.89996576
-20.11985207 7.64022398 -4.90115690
-20.10743713 7.64896822 -4.90143490
-20.06057930 7.66189384 -4.90141821
-20.03744888 7.65402985 -4.90158796
-20.06172752 7.67218304 -4.90120697
-20.94589996 5.81598377 6.54887295
-20.94158363 5.82570887 6.54874182
-20.96629906 5.81026983 6.56511497
-20.94859695 5.81540012 6.56165123
-22.07693291 6.95444393 7.48488903
-22.08111572 6.93502712 7.49648619
-22.08166504 6.95459223 7.50190592
-22.06461334 6.96275091 7.49304104
-22.06092644 6.98350382 7.49701023
-22.03346443 6.97908115 7.52463293
-22.06404305 6.93003082 7.54221916
-22.02561951 6.97160482 7.54445696
-22.04176140 6.99746990 7.50924778
-22.06096077 6.97502422 7.48102283
-22.01417732 6.87975502 7.56186914
-21.53020859 7.90368795 10.48714828
-21.53559113 7.91278601 10.49354935
-21.52676773 7.91224289 10.48781300
-21.53842163 7.94356203 10.49719715
-21.53061485 7.92444897 10.51178646
-22.78881836 7.70053720 8.80407715
-22.78207397 7.69024420 8.82838345
-22.77490997 7.69050884 8.82634830
-22.78354263 7.70805883 8.83308315
-22.75044823 7.69431686 8.84428787
-20.13711739 7.49339390 -4.64101219
-20.13091469 7.48693180 -4.63641691
-20.11066055 7.48637676 -4.61552382
-20.08597565 7.48648024 -4.61917496
-20.13724518 7.49003792 -4.61818218
-20.11367416 7.48870802 -4.61502695
-20.08396149 7.48992300 -4.61100912
-20.18478584 7.52613401 -4.61542892
-20.17471504 7.51934624 -4.62204695
-20.02961349 7.60464096 -4.61449385
-20.13444901 7.62636518 -4.61555576
-20.11161232 7.63785887 -4.61480093
-20.08673859 7.64189577 -4.61434507
-20.05792427 7.63929796 -4.61399603
-20.04058647 7.62613201 -4.61587286
-20.06254387 7.64583492 -4.61771917
-20.08307648 7.49122095 -4.58916378
-20.06021500 7.49759483 -4.58976412
-20.03670502 7.50676012 -4.59083223
-20.02517700 7.51936197 -4.58597803
-20.01462364 7.53294182 -4.58972311
-20.20546150 7.54988718 -4.59756804
-20.19142151 7.55129814 -4.58922911
-20.01455688 7.55185080 -4.58794498
-20.18780518 7.58058214 -4.59041691
-20.17317390 7.58748293 -4.59240294
-20.02217674 7.58719492 -4.59043598
-20.01527786 7.57847404 -4.58872414
-20.16009903 7.60603809 -4.58835602
-20.14400673 7.61428785 -4.58859587
-20.03154945 7.60618305 -4.58912182
-20.13247681 7.62506104 -4.59004498
-20.11137581 7.63545179 -4.58930397
-20.08529663 7.64057016 -4.58956385
-20.01765060 7.53317595 -4.56575394
-20.15329552 7.35678911 -3.09417892
-20.12597466 7.35313702 -3.10702395
-20.20662498 7.38036203 -3.10404992
-20.18811226 7.37515497 -3.10602307
-20.13645554 7.37048292 -3.10629296
-20.06918716 7.40824509 -3.09793496
-20.20861053 7.38071918 -3.07899308
-20.18936920 7.36796808 -3.08050609
-20.16554260 7.36115408 -3.08627200
-20.13277054 7.36198997 -3.08342290
-20.11128807 7.37102795 -3.08115792
-20.21421623 7.39587021 -3.08098793
-20.08147240 7.39232588 -3.08310795
-20.06655502 7.40474892 -3.07967710
-20.22852898 7.41690588 -3.08294606
-20.22123528 7.42495680 -3.08226705
-20.05532455 7.42057705 -3.08154988
-20.04857826 7.44358921 -3.08216405
-20.04373169 7.44825506 -3.08222795
-20.20911217 7.47494793 -3.08074498
-20.20142746 7.48553801 -3.07323289
-20.21285439 7.47567797 -3.05777001
-20.05843925 7.47368097 -3.05174804
-20.04426193 7.46362305 -3.06371808
-20.18651772 7.49932384 -3.05556512
-20.16837692 7.51105881 -3.05380797
-20.12709427 7.51340103 -3.04255605
-20.10426140 7.51119614 -3.04719996
-20.08538628 7.50137091 -3.05295706
-20.06743622 7.48982000 -3.05733299
-20.17903328 7.51652479 -3.05643702
-20.16018295 7.51734591 -3.05667710
-20.13849258 7.52126598 -3.05639291
-20.11402702 7.51834917 -3.05606699
-20.09335709 7.51633787 -3.05483699
-20.13965034 7.51616907 -3.03837204
-22.23258972 6.43119097 8.57845306
-22.22395515 6.42911816 8.57320309
-22.21428680 6.42777395 8.58847904
-22.19009209 6.43899393 8.61586857
-22.16900635 6.43579817 8.61647034
-22.42150497 8.40354824 10.69494915
-22.00546074 7.15460110 9.35053062
-21.93211937 7.11386919 9.36541367
-22.00800323 7.14097214 9.36303043
-21.98221397 7.16712999 9.19827461
-22.06920242 7.19817877 9.18763828
-21.98772812 7.17811680 9.19149780
-22.00176620 7.13158607 9.22541809
-21.99133110 7.13250208 9.22134781
-22.08269119 7.18867397 9.21200848
-21.97760391 7.18017006 9.21150875
-21.99143219 7.14575815 9.23447227
-21.95762634 7.13674879 9.32633877
-21.93179703 7.10816193 9.31794357
-22.01481628 7.16327620 9.26753807
-21.97887039 7.12133694 9.36581230
-22.05742645 7.20903778 9.32778645
-22.11576843 7.23920584 9.31795120
-22.01020050 7.13908815 9.33297729
-21.98623657 7.13775110 9.34457016
-22.04060173 7.11883783 9.34897232
-22.05305862 7.11487389 9.39280128
-22.08877182 7.22018814 9.22713280
-21.96887207 7.12034512 9.30697536
-21.95339966 7.11356688 9.32057571
-22.07918549 7.20890284 9.20172215
-22.00935173 7.13922501 9.35021973
-22.02033234 7.12365723 9.37968063
-22.04476547 7.20955610 9.32460213
-22.09610748 7.22044611 9.23390198
-22.11460114 7.11407423 9.40186501
-22.73756981 6.67480898 9.53254509
-21.84642982 6.73759985 9.03412628
-21.82271194 6.73934698 9.05865860
-21.82432556 6.73575211 9.03264046
-21.80505943 6.74730301 9.03592300
-21.87490845 6.75611019 9.09256458
-23.02215195 7.63425112 9.45755959
-23.07949448 7.66608095 9.45801163
-23.07637024 7.67631578 9.45154190
-23.06912994 7.66133022 9.46683216
-22.95965576 7.65677500 9.46045494
-22.94906807 7.65810490 9.45710659
-22.96398735 7.62622595 9.48254967
-22.95947266 7.65486097 9.46802616
-22.95042038 7.65703106 9.47261906
-22.97267151 7.65048409 9.50347424
-22.95944786 7.67424488 9.49010468
-22.97976112 7.65060997 9.52835083
-22.98125076 7.68469906 9.53901672
-22.99060059 7.60700798 9.55653000
-23.02347183 7.60665607 9.40696526
-23.02450180 7.60652781 9.42119217
-23.02724457 7.62642813 9.46576405
-22.99118042 7.63344622 9.50793076
-23.02718544 7.65877104 9.47156429
-22.99037552 7.61411285 9.52336407
-23.03407097 7.61638594 9.44438744
-23.04515266 7.65622091 9.46984863
-22.26022720 6.55794621 8.34074116
-22.24274826 6.56184816 8.34008408
-22.22754478 6.55934620 8.34202671
-22.23568535 6.54776716 8.35815430
-22.26655006 6.56971598 8.35188484
-22.22427368 6.55205679 8.36421967
-22.18015671 6.51680994 8.40824127
-22.16031647 6.51167393 8.40545845
-22.13895607 6.51604080 8.41044807
-22.16278076 6.49429512 8.38484001
-22.14411354 6.51409006 8.38994408
-22.14913750 6.52738523 8.39673042
-22.16167831 6.49154520 8.40326977
-21.94225311 7.74130583 8.86493778
-21.93660355 7.76116085 8.86045742
-21.91109276 7.76706791 8.86546993
-21.93243408 7.75784206 8.87192059
-21.91639709 7.76810217 8.87518406
-21.95021820 7.73639297 8.85270691
-21.87907410 7.77816486 8.86569118
-20.83937263 6.30637407 5.78335810
-20.83536720 6.33016920 5.77676678
-21.80737495 7.22254515 9.90918446
-21.80195999 7.37015915 9.79256058
-21.79090500 7.35077000 9.81539917
-21.79526138 7.35887480 9.81806087
-21.74025726 7.22694492 9.86942482
-20.94824600 5.65885782 6.48440218
-20.94639587 5.68510723 6.48463106
-20.92607117 5.65435314 6.51361799
-20.89355469 5.64337111 6.52093506
-20.91225052 5.64031219 6.53267097
-20.93301773 5.65839291 6.53599215
-20.90908051 5.64555693 6.53475714
-20.92624283 5.65363216 6.56989622
-20.92057419 5.67468977 6.57541323
-20.93268967 5.65453005 6.59033203
-20.91954803 5.64989614 6.61002207
-21.07428741 5.62600899 6.52144718
-21.07013702 5.61436796 6.53460503
-21.07277107 5.63088512 6.53158712
-21.06790924 5.63208580 6.55357122
-20.97384453 5.60034609 6.59494781
-20.96566772 5.60634422 6.61458302
-20.96886635 5.62414885 6.61423016
-20.96816635 5.64342880 6.62531614
-20.80724144 5.65293407 6.59157419
-20.82392883 5.60304785 6.62331009
-21.10032654 5.65755081 6.58855104
-21.10675240 5.65965414 6.61658001
-21.11489487 5.66098022 6.58816195
-21.10792732 5.64811993 6.64473391
-21.05636406 5.61851501 6.51860094
-20.89559937 5.63786507 6.51917219
-20.88665771 5.64506292 6.53588295
-21.04387665 5.62263823 6.62291193
-21.05320168 5.61252308 6.64841795
-21.09186172 5.62579489 6.65128517
-21.08176613 5.62797499 6.66070414
-21.07692337 5.66417694 6.68481684
-21.07690811 5.62906885 6.64348602
-21.10054588 5.63302088 6.66742277
-21.10202217 5.64644623 6.66721821
-21.01868248 5.57624817 6.60121679
-20.99425316 5.57799292 6.58827686
-20.99377632 5.59754705 6.58904505
-21.01620102 5.57524776 6.60638618
-20.99146271 5.57809496 6.60566521
-20.84039497 5.58605003 6.61723280
-20.84321594 5.59836817 6.61417913
-20.88818741 5.62336397 6.63856411
-21.12392426 5.67890596 6.66661978
-20.89070320 5.60552216 6.61426115
-20.88899422 5.60416222 6.59429979
-20.86850166 5.60300303 6.61153412
-21.10490417 5.67042017 6.59625387
-20.95603752 5.66773701 6.46570587
-20.94512558 5.67542982 6.46864080
-21.09508705 5.68096924 6.67211008
-21.08434296 5.69622183 6.67580700
-20.86760902 5.59705687 6.60191202
-20.89935303 5.61811113 6.59018183
-20.83668137 5.67714977 6.66903210
-22.24025726 7.19275093 7.73327589
-22.23969650 7.20781422 7.73882294
-22.24330330 7.16610193 7.73762798
-22.25809288 7.16704416 7.74428988
-22.25606918 7.16121101 7.76124716
-22.19911385 7.21264315 7.78362608
-22.16016006 7.16491985 7.80170107
-22.20282364 7.20816183 7.80067396
-22.25941849 7.19002295 7.74236822
-22.24004555 7.16118288 7.75385809
-22.21618462 7.21509695 7.76001692
-22.22676468 7.23003387 7.77318907
-22.21227074 7.17136192 7.79332590
-22.34895706 7.49596596 8.51444530
-22.37648773 7.45275116 8.49204540
-22.36804199 7.49393797 8.49517059
-20.27065849 7.17266512 -1.69820702
-20.34032059 7.19998217 -1.67603505
-20.31772804 7.19241905 -1.67614996
-20.29334068 7.18786907 -1.67654502
-20.26767540 7.19262314 -1.67657399
-20.24989128 7.19950199 -1.67866802
-20.33982086 7.21371222 -1.67652404
-20.32959747 7.20417118 -1.68412900
-20.23755646 7.20766497 -1.67645204
-20.22224426 7.22068501 -1.67812705
-20.36263657 7.24470091 -1.68185496
-20.34842110 7.24178314 -1.67734396
-20.21200752 7.23949623 -1.67703795
-20.34197617 7.26764917 -1.67787802
-20.33508682 7.28334808 -1.67536497
-20.32176590 7.29589891 -1.67816806
-20.30070114 7.30559492 -1.68536603
-20.19668007 7.28398895 -1.67127395
-20.31083679 7.30666494 -1.67254305
-20.29369354 7.31230879 -1.67702997
-20.24299240 7.31430387 -1.67941296
-20.21698570 7.23990393 -1.65171301
-20.21416855 7.26562309 -1.64989197
-20.23317528 7.30205488 -1.64781797
-20.22195053 7.29285812 -1.65246606
-20.26944542 7.32028723 -1.65136003
-20.24583054 7.31244612 -1.65099800
-20.21943665 7.30721903 -1.64970100
-22.08454704 6.97861719 7.50268316
-22.05796432 6.98501682 7.55066586
-22.06653976 6.96800280 7.56762695
-22.10301590 6.97470999 7.50012922
-22.10666466 6.95175982 7.53013992
-22.09192276 6.95842886 7.51905584
-22.06108093 7.01032114 7.52449083
-22.03788376 7.00240898 7.52652788
-22.06311798 7.00109386 7.50585699
-20.17913437 7.55900002 -5.23823881
-20.16956139 7.54685497 -5.23829794
-20.05486107 7.68156719 -5.24117994
-20.08827782 7.66753721 -5.20840883
-20.06546402 7.66838312 -5.20351601
-20.08198166 7.67355824 -5.21138000
-20.08485603 7.66476393 -5.18910694
-20.08214378 7.67471504 -5.18899679
-20.16229630 7.60738087 -5.16303110
-20.15282249 7.62161779 -5.16157913
-20.13375664 7.62772894 -5.15986109
-20.12113380 7.63764381 -5.15971708
-20.91009331 6.15823078 6.41231918
-20.87229347 6.15882778 6.40826082
-20.91591263 6.15872383 6.43034697
-20.89767647 6.15949011 6.43652296
-20.89682007 6.16481590 6.43099308
-20.85558701 6.17892122 6.42254305
-20.83289528 6.18340683 6.44008398
-20.82780457 6.18638277 6.46090508
-20.82942200 6.19918394 6.46615410
-20.81176567 6.18335819 6.46530390
-20.81341743 6.19614792 6.45878506
-20.79950905 6.19235086 6.45679808
-22.14231491 8.07729912 9.91769981
-22.13075447 8.05909634 9.88946819
-22.12039757 8.07068062 9.88931465
-22.13529396 8.08738041 9.87171364
-20.46733284 7.21439600 0.01371800
-20.48967934 7.27376413 0.01570900
-20.48413086 7.26579285 0.01262800
-20.47866821 7.29428482 0.01259200
-20.44914055 7.18958282 0.03976900
-20.42354965 7.19172001 0.03925500
-20.40543747 7.19860506 0.04197100
-20.47525787 7.21343279 0.03855500
-20.39320183 7.20746279 0.03792600
-20.48077011 7.24058008 0.03925900
-20.48335457 7.29670095 0.03807700
-20.36960030 7.29519081 0.03865700
-20.47076416 7.31521797 0.03857600
-20.45055962 7.32623911 0.03843500
-20.42086792 7.33002615 0.04059000
-20.37749481 7.31125593 0.03613700
-20.44241714 7.33462191 0.04101700
-20.40619469 7.33526802 0.03802900
-20.38908577 7.20485878 0.06043100
-20.37660980 7.21407700 0.06444400
-20.36375237 7.23925114 0.06419300
-20.35784340 7.25101614 0.07064100
-20.36018753 7.26762486 0.06108400
-20.35694122 7.25661421 0.05755800
-20.37306023 7.29606581 0.06523100
-20.42366791 7.32467413 0.06463900
-20.39685440 7.31454897 0.06501900
-20.42932701 7.33692598 0.05839800
-22.26711655 7.01353598 7.81227016
-22.28246307 7.02325821 7.81548023
-22.26496887 7.02573919 7.81365681
-22.27286911 7.01376390 7.83454323
-22.27051735 7.02518320 7.83618689
-22.28553772 7.00832891 7.80677080
-20.67306519 6.98622990 2.12312889
-20.65863991 6.98378277 2.11946988
-20.63043404 6.97722006 2.12174296
-20.60469055 6.98331022 2.12027311
-20.67350006 6.98518896 2.14502311
-20.65731239 6.97973680 2.14558411
-20.60391808 6.98057318 2.14327693
-20.68094254 7.00667286 2.14387798
-20.66513443 6.99720001 2.13533902
-20.68716240 7.03180885 2.14561200
-20.57110214 7.03621387 2.14371109
-20.56408310 7.04346609 2.15106893
-20.68165016 7.05976677 2.14377403
-20.59117508 7.07665014 2.15749407
-20.60019684 7.07049322 2.17918491
-20.58394623 7.05564594 2.17534995
-20.67480278 7.07753515 2.16288090
-20.65723610 7.08178902 2.16944003
-20.62854958 7.08561516 2.17043495
-20.61044884 7.07735682 2.16866589
-20.57711601 6.98404312 2.14859509
-22.10637474 7.13575888 9.44510555
-22.06584167 7.12947416 9.45480824
-22.08426094 7.15238905 9.45505524
-22.05512047 7.11872911 9.46989441
-22.14010048 7.16310310 9.42683601
-22.15744019 7.16790199 9.42329597
-22.10763168 7.16737795 9.42783833
-22.44809723 6.44424486 8.43425369
-22.45138168 6.45700312 8.44080353
-22.43591881 6.44885206 8.43248272
-22.47301292 6.42642498 8.38780499
-22.48503876 6.41887522 8.38623619
-22.47546196 6.41407013 8.40499783
-22.45170021 6.45370007 8.41167831
-22.42299461 6.45212793 8.42240143
-20.91050529 6.72563219 3.89094710
-20.90751266 6.70113993 3.91844797
-20.88994980 6.69926596 3.90978909
-20.86325645 6.70161295 3.91229510
-20.91750717 6.72461224 3.91043496
-20.93439484 6.73979521 3.91966105
-20.91980553 6.74630785 3.91158605
-20.91550446 6.77306604 3.91255999
-20.90841675 6.79083204 3.91656804
-20.85863495 6.71575499 3.93561697
-20.83964157 6.71984720 3.93496895
-20.86538124 6.80112600 3.93902612
-20.91061783 6.81421614 3.93468499
-20.89310265 6.81953382 3.94569111
-20.85396194 6.74300909 3.96701503
-20.84518814 6.74883699 3.96180797
-20.85625076 6.77877283 3.97346401
-20.84463120 6.77118397 3.96342707
-20.85098839 6.78634024 3.95976710
-20.84865379 6.81643915 3.95324802
-20.88684845 6.86318207 3.91653109
-20.38492203 7.22765493 -1.46244502
-20.38743401 7.24491596 -1.46738005
-20.38995171 7.26632690 -1.46855795
-20.38751221 7.28598690 -1.46537006
-20.36491585 7.31165409 -1.46853399
-20.34028244 7.33623505 -1.46928799
-20.33657646 7.20131922 -1.44764102
-20.32381058 7.20088291 -1.44705701
-20.36931419 7.21932411 -1.44212103
-20.34596634 7.20644283 -1.44223595
-20.31744194 7.20361805 -1.44158304
-20.29230118 7.21161795 -1.44254601
-20.27585220 7.22313786 -1.44578600
-20.38155365 7.23122406 -1.44561303
-20.26688194 7.24024487 -1.44261706
-20.25797844 7.26544189 -1.44248104
-20.25199699 7.26515198 -1.44573796
-20.37863350 7.29816008 -1.44305098
-20.34730721 7.32673883 -1.44408405
-20.33005905 7.33082581 -1.44417500
-20.28759193 7.32878780 -1.44238305
-20.24971581 7.32005596 -1.44146395
-20.33789444 7.33340883 -1.44018805
-20.31939316 7.33516598 -1.44302297
-20.29913139 7.33407497 -1.44119501
-20.33462715 7.20156288 -1.42845905
-20.25307083 7.28770685 -1.42516899
-20.27342033 7.31607103 -1.41748297
-20.71477127 6.75364304 2.95773506
-20.78107643 6.78113317 2.95064592
-20.76022148 6.76992512 2.95057988
-20.73607063 6.76447010 2.94979000
-20.78769302 6.79808807 2.94868398
-20.73541641 6.76362896 2.97738099
-20.70693970 6.77342606 2.97727489
-20.68577576 6.79883718 2.97946000
-20.78695488 6.82961512 2.97798109
-20.68072891 6.82892609 2.97813797
-20.78221321 6.84450388 2.97886896
-20.76464272 6.85479784 2.97837710
-20.69874191 6.86011887 2.98275304
-20.68609238 6.84942818 2.97519302
-20.79085541 6.87061501 2.96541405
-20.74653625 6.86136913 3.00117302
-20.70229530 6.85791922 3.00377989
-20.68941498 6.84591579 3.00096798
-20.75808334 6.87337589 2.99484897
-20.73437881 6.86890221 3.00321794
-20.71405029 6.87031889 2.99746490
-20.57220078 7.04358196 0.95118600
-20.55331802 7.04043484 0.94952297
-20.59726906 7.06087017 0.95007598
-20.58498573 7.05002308 0.95042402
-20.60486794 7.08547592 0.94783002
-20.60120964 7.11071014 0.95020700
-20.59025192 7.12158012 0.95232099
-20.59386444 7.13514185 0.95239401
-20.57952881 7.13865995 0.95148897
-20.55655861 7.14727306 0.94859201
-20.57141304 7.15539885 0.95357198
-20.54878044 7.15354395 0.95123202
-20.53384209 7.04375601 0.97200900
-20.52247810 7.04927111 0.97494000
-20.50361443 7.06098318 0.97278798
-20.49090195 7.08343792 0.97066301
-20.48634338 7.08916378 0.96813601
-20.58971405 7.12322903 0.97236300
-20.49220276 7.11272097 0.97474301
-20.59699631 7.12827587 0.97158903
-20.55836678 7.14823818 0.97378302
-20.52335167 7.14756393 0.97552103
-20.50716019 7.13615179 0.97668397
-20.55039978 7.15394783 0.97555500
-20.53205490 7.15301323 0.97564000
-20.51039314 7.15021896 0.97496498
-20.48750305 7.09216118 0.99259198
-20.49207115 7.11249113 1.00037098
-20.48497009 7.10436010 0.99652803
-21.70506096 7.84904480 10.23637962
-21.72254944 7.83904696 10.25469780
-21.70686913 7.82263994 10.23120213
-21.71937561 7.83361101 10.22675514
-22.77706146 7.81702518 10.35939693
-22.68027878 7.70032692 10.34783268
-22.70104790 7.71198988 10.36479282
-22.68951416 7.70687819 10.35987854
-22.72635651 7.74408817 10.38026905
-22.74044800 7.75211477 10.37228680
-22.69867325 7.69420290 10.36950970
-22.76758194 7.81426811 10.38533497
-22.71002579 7.73190498 10.37935352
-22.69428253 7.72972584 10.39244270
-22.66206932 7.77235222 10.38451385
-22.66736603 7.76730394 10.41194534
-22.73736954 7.77053881 10.40272236
-21.59819412 6.36799908 6.72621918
-21.60921288 6.37603903 6.73055983
-21.59262848 6.37563610 6.71856403
-21.57591629 6.38386583 6.72140694
-22.90963554 7.66550493 10.07490540
-22.89122963 7.66263103 10.07726097
-22.90719986 7.67627096 10.07267475
-22.89597511 7.67914295 10.08030224
-22.89532089 7.66397190 10.09951401
-22.87929153 7.65548086 10.09266567
-22.76176453 7.84337521 10.09496593
-22.90302086 7.68069601 10.10121346
-22.89803123 7.70624304 10.09667015
-22.75839424 7.79412985 10.03085899
-22.74677658 7.79558516 10.02761364
-22.74383926 7.81708717 10.02036953
-22.75277710 7.85594082 10.01729298
-22.75901031 7.81155491 10.06017017
-22.76187706 7.75987911 10.07519054
-22.83123779 7.78784180 10.07186699
-22.81523514 7.79561090 10.08397293
-22.76387596 7.78810501 10.07133579
-22.80975342 7.80695295 10.07923698
-22.84367943 7.79348803 10.08868790
-22.79342651 7.89929914 9.99018764
-22.76605225 7.89487123 10.01582718
-22.87989426 7.71978521 10.08174324
-22.87388992 7.72438383 10.09362221
-22.89118958 7.72219706 10.11551094
-22.76144028 7.80698395 10.07400417
-22.83369446 7.64898109 10.07294273
-22.88713074 7.75467777 10.07986259
-22.88905716 7.73774815 10.09229469
-22.88677025 7.78015280 10.08975410
-22.74359512 7.79694796 10.07968903
-22.85155678 7.83502913 10.11081696
-22.84919548 7.84509087 10.14033413
-22.89335632 7.73434496 10.08170319
-22.89949226 7.75995588 10.09161758
-22.76728249 7.87855387 10.07007599
-22.36397743 7.99119616 8.98478699
-22.34938622 8.02574062 8.97745705
-22.32750511 8.02168655 8.97995663
-22.39196968 7.96077585 8.98788643
-22.37294769 7.96473598 8.98437500
-22.39851189 7.94758081 9.00447655
-22.34961319 7.96680593 9.00883293
-22.41880417 7.96783018 8.96419716
-22.39522552 7.96159792 8.95553207
-22.33625031 8.03984547 8.96227169
-22.32636452 8.04149437 8.96289825
-22.35400581 7.98707390 8.98954678
-22.09083176 6.74662018 9.03214264
-22.12581444 6.71396303 8.94418907
-22.14242363 6.72228718 8.88219738
-22.15567398 6.77171183 8.87828636
-22.08557129 6.74805593 9.01261902
-22.14371300 6.70450497 8.90308666
-22.10514259 6.74653101 8.98519516
-22.16270828 6.75536489 8.86547661
-22.06818390 6.72090721 9.01633930
-22.08765221 6.72111511 9.03935146
-22.08593750 6.73275900 9.04997063
-22.09208298 6.75271606 9.08820534
-22.12907219 6.72918510 9.11814308
-19.99342346 7.62414598 -5.14061594
-20.12448120 7.50567102 -5.13544321
-20.15991974 7.53792286 -5.13345194
-20.13756943 7.53014088 -5.13507700
-20.12167358 7.51901293 -5.13372803
-20.00583458 7.63233519 -5.13562202
-20.01599121 7.65362406 -5.13612080
-20.10987091 7.50226688 -5.10907221
-20.15809250 7.53544188 -5.10753679
-20.16965675 7.54694414 -5.10903788
-20.00099373 7.60632515 -5.10788393
-19.99010468 7.59258509 -5.10663080
-20.03372002 7.66263819 -5.10925198
-20.05759239 7.67194414 -5.10714197
-20.03604126 7.67344999 -5.11623478
-20.07189178 7.48636723 -5.07072401
-20.08422661 7.49613810 -5.08170223
-20.06156921 7.50249195 -5.08180380
-20.18097878 7.55242395 -5.08199215
-20.17250824 7.54374409 -5.08439493
-20.18570518 7.57711411 -5.08344984
-20.14832306 7.59109497 -5.07530594
-19.98488235 7.57810593 -5.08240318
-20.05900002 7.66408110 -5.08249378
-20.05486298 7.67183781 -5.07896805
-20.03535652 7.67402077 -5.09532309
-20.06901741 7.48781395 -5.06193495
-20.06131744 7.50412321 -5.05709982
-20.04223442 7.51090479 -5.06212282
-20.04969978 7.51762009 -5.05696392
-20.01305580 7.53464413 -5.06336403
-19.99957466 7.54677820 -5.05447102
-19.98819160 7.55721903 -5.05603981
-20.16693306 7.58957577 -5.05549812
-20.16427040 7.59696293 -5.05764818
-20.14284515 7.60437489 -5.05605793
-20.08528519 7.66031504 -5.06137419
-20.08351135 7.67112017 -5.06975985
-20.03462219 7.52627277 -5.03370094
-21.75354767 7.71845913 10.41510582
-21.62022400 7.86137486 10.43820572
-21.63750076 7.86497116 10.43859196
-21.63574982 7.88784599 10.45920753
-21.66534805 7.91601896 10.47058678
-21.62854195 7.90788698 10.45409775
-21.69090652 7.84133816 10.47543621
-21.69000244 7.86474180 10.46463776
-21.69717407 7.84012890 10.48048210
-21.72789574 7.96134806 10.41400433
-21.61309052 7.94951391 10.47573853
-21.62061691 7.95907211 10.48631954
-21.60484695 7.95846224 10.48311234
-21.71121979 7.90658379 10.46694660
-20.94111061 5.96503401 5.85688877
-20.89990044 5.97856903 5.85813522
-20.93577957 5.97099018 5.84826612
-20.92636490 5.96916485 5.85436010
-21.86352730 6.75181723 7.08009291
-21.85997009 6.76886797 7.08367586
-21.87779808 6.79985189 7.05807877
-21.85659981 6.79494381 7.05980921
-21.88692093 6.78810883 7.01695299
-21.90172005 6.75316286 7.05330896
-21.85632706 6.79338598 7.04162121
-21.87970734 6.77555609 7.03194714
-21.91997910 6.76243305 7.04442596
-21.90328789 6.77307320 7.03312922
-21.88965607 6.75071096 7.04988194
-21.88421822 6.71925020 7.05287504
-21.92165565 6.75708580 7.04982185
-20.88048744 6.68473387 4.61131907
-20.88516045 6.67154694 4.63937712
-20.87943077 6.68464279 4.63643694
-20.85933304 6.67864513 4.59428883
-20.84709549 6.67147684 4.59122801
-20.88694191 6.65550423 4.63347483
-20.86587715 6.68524218 4.61601591
-21.97025108 6.86509895 7.24659491
-21.95044327 6.86573219 7.24537516
-21.98111343 6.82770777 7.26816988
-21.96128082 6.82681417 7.26566315
-21.95656013 6.85489893 7.26462507
-21.93225098 6.85984612 7.26692820
-21.93284225 6.86898184 7.26795816
-21.90972519 6.82565784 7.30012894
-21.91193008 6.85333395 7.29157782
-21.91355515 6.82571077 7.30903482
-20.18874741 7.24459314 -2.43073893
-20.16334343 7.23880196 -2.43089700
-20.13680267 7.24269915 -2.43098593
-20.11679077 7.24984407 -2.43135405
-20.20910835 7.26511478 -2.43105006
-20.20088768 7.25522518 -2.43577099
-20.10448837 7.26053095 -2.43151307
-20.08834267 7.27400017 -2.42889595
-20.21834564 7.29345798 -2.43150711
-20.07782555 7.29002523 -2.43281102
-20.07010651 7.30132389 -2.43077707
-20.23067856 7.31096315 -2.43915296
-20.22208977 7.31591892 -2.43142390
-20.07653427 7.31838989 -2.43180990
-20.06702614 7.31295776 -2.43219090
-20.20964813 7.34033489 -2.43071890
-20.19166374 7.35146809 -2.43080711
-20.18303108 7.36297417 -2.43169498
-20.07056808 7.29420710 -2.41169500
-20.10229492 7.35758400 -2.39728808
-20.08832550 7.34724092 -2.40541601
-20.16384506 7.36486816 -2.40423393
-20.13746834 7.36751699 -2.40401697
-20.11311913 7.36413383 -2.40417290
-20.11643982 7.36248112 -2.37971497
-21.42697906 6.23608398 8.37179756
-21.41736794 6.23494291 8.36903286
-21.45707703 6.24750710 8.36716843
-21.48564720 6.27771282 8.36196136
-21.43393898 6.22871494 8.38322544
-21.41916466 6.22439480 8.37808132
-21.46076965 6.25622988 8.38003731
-21.45386887 6.23296118 8.42803574
-21.47182846 6.24617386 8.43764973
-21.45198059 6.23055983 8.41015244
-21.63814926 6.34991789 6.82874107
-21.62211609 6.31201315 6.85161877
-21.62425804 6.33212185 6.85162401
-21.63521957 6.35525417 6.84245396
-21.62874794 6.34495115 6.84162998
-21.64365196 6.31014013 6.85224295
-21.64164352 6.32547712 6.85330391
-21.61865807 6.35312891 6.82944202
-21.06844521 6.61662197 4.49105501
-21.05936623 6.62244177 4.50211096
-21.04362679 6.67314816 4.50934076
-21.04592133 6.68409491 4.51146793
-20.99984550 6.62884998 4.52799892
-21.04612923 6.67313004 4.53688192
-21.02201271 6.67599010 4.53606796
-20.99897194 6.65325594 4.55640507
-21.02132988 6.67428780 4.56040907
-20.99710846 6.66756296 4.56153488
-21.06697083 6.66532803 4.49082899
-21.06747818 6.62146902 4.51026678
-21.05757523 6.64750195 4.51028109
-21.06655693 6.66821814 4.51047802
-22.02800560 6.68014622 8.82545853
-20.83675385 6.69462681 4.98136377
-20.81193161 6.69717693 4.97710705
-20.79045486 6.69033623 4.97940779
-20.81426620 6.67148495 4.98168898
-20.78691673 6.67734194 4.95487690
-20.80971909 6.71126890 4.97708178
-21.82721901 6.75046778 7.03163290
-21.82911682 6.74906683 7.05347490
-21.81170082 6.62502193 7.02020884
-21.85646057 6.69374990 7.03098202
-21.83504295 6.60809517 7.02308083
-21.87620163 6.74471378 6.98514986
-21.87532616 6.72387123 7.00884724
-21.87836266 6.74950790 7.00555706
-21.85170174 6.75169420 7.00423908
-21.85570526 6.76651621 7.01159382
-21.89404678 6.74080420 6.99388218
-21.83456993 6.76688623 7.03263998
-21.85991478 6.72851515 6.99905491
-21.90079498 6.72516918 7.00793314
-21.79974937 6.66506290 7.05105495
-21.77389145 6.67855978 7.04917622
-22.11318016 8.10040474 9.82377529
-22.11856270 8.11821270 9.82329655
-22.13011932 8.10368538 9.84290695
-22.11488724 8.09366798 9.83588409
-22.11577225 8.11384487 9.83094120
-22.26156235 8.03119469 9.48491287
-22.24452782 8.02910042 9.48481846
-21.66544342 6.59720612 6.90197992
-21.65328789 6.60719299 6.91020918
-21.65630913 6.57748413 6.93113279
-21.79042816 6.63706207 6.83448410
-21.79627037 6.62041807 6.85027504
-21.87895012 6.47247696 6.80256796
-21.86405373 6.47339678 6.81170177
-21.89911842 6.50927305 6.80239582
-21.88119507 6.51516914 6.79789209
-21.87384605 6.53268003 6.80285597
-21.72838402 6.66644478 6.87369585
-21.66694641 6.60599613 6.91013384
-21.74455261 6.62166214 6.88291788
-21.72649193 6.64634323 6.87879276
-21.72359848 6.64995909 6.89208508
-21.65159607 6.59973288 6.90243912
-21.76895523 6.66150188 6.83223295
-21.77342033 6.62136507 6.85354710
-21.77680397 6.64535093 6.84806824
-21.74266052 6.64753294 6.87941313
-21.85402870 6.53563309 6.82358313
-21.84745216 6.55583811 6.83133221
-21.82062149 6.52395296 6.84287024
-21.83450317 6.53536797 6.84956694
-21.74683952 6.64800692 6.84983492
-21.75024223 6.66924000 6.85036707
-20.18367958 7.22499990 -2.35057902
-20.16394997 7.22420502 -2.35247493
-20.14276886 7.22598791 -2.34594893
-20.21120453 7.24227095 -2.35277295
-20.19438934 7.23090982 -2.35598707
-20.13549042 7.23216915 -2.35467792
-20.11401176 7.24474096 -2.35236001
-20.22807693 7.27441120 -2.34119892
-20.22335243 7.26554012 -2.35306001
-20.10218620 7.25964403 -2.35347700
-20.09501266 7.27176905 -2.35448694
-20.08704376 7.29175615 -2.35309696
-20.23080444 7.31321096 -2.35483193
-20.22031403 7.32304096 -2.35299397
-20.20792389 7.33940601 -2.35453296
-20.18115807 7.35945415 -2.34926510
-20.19860458 7.22964478 -2.33050704
-20.12857819 7.23079109 -2.33310509
-20.11400223 7.24129391 -2.33038497
-20.09559250 7.25315619 -2.33244300
-20.22748947 7.28854084 -2.33588290
-20.08970261 7.29170895 -2.32848191
-20.08931923 7.31914997 -2.32621598
-20.19086456 7.35193491 -2.32752895
-20.17249107 7.35719585 -2.32686400
-20.12877274 7.35739517 -2.32060003
-20.18352318 7.36061621 -2.32446289
-20.16237259 7.36266899 -2.32615900
-20.12738609 7.35690403 -2.30235505
-20.10965538 7.34683800 -2.30023193
-20.09305382 7.33383512 -2.30605006
-20.13888931 7.36315584 -2.30086088
-20.11749840 7.36002684 -2.30254006
-22.66484833 8.06909943 9.42746639
-22.63930702 8.06201744 9.43204880
-22.71763229 8.10806656 9.42572594
-22.68557930 8.08894730 9.43294811
-22.66767502 8.08744240 9.43637180
-22.71812439 8.11592865 9.42540359
-22.68229294 8.08387280 9.44165993
-22.65363884 8.06941128 9.44411182
-22.01134109 6.52184820 8.72234726
-22.05642319 6.53069496 8.75392532
-22.03461838 6.52726889 8.74602318
-20.18442345 7.43344879 -3.57514405
-20.16499138 7.42688608 -3.57498503
-20.11057663 7.42879105 -3.57508492
-20.09444046 7.42773104 -3.57089305
-20.10443497 7.44106388 -3.56900096
-20.18317795 7.43274212 -3.54828095
-20.16407204 7.42550802 -3.54875493
-20.13725281 7.42675591 -3.54987001
-20.11596680 7.43034315 -3.54874611
-20.20947838 7.45343924 -3.54675388
-20.19601822 7.44010305 -3.54880595
-20.10789299 7.44019318 -3.54845905
-20.08444595 7.45060492 -3.54864311
-20.06831741 7.45749998 -3.54409599
-20.21877289 7.47375393 -3.54995394
-20.06091118 7.47274303 -3.54967093
-20.21356010 7.50106478 -3.54870200
-20.20241547 7.57200623 -3.54818010
-20.11135101 7.57770491 -3.54871988
-20.05413437 7.50216913 -3.52517200
-20.20655441 7.52615976 -3.52288103
-20.20088387 7.53629780 -3.51582289
-20.06093788 7.52514696 -3.52071810
-20.20323181 7.54587793 -3.52890110
-20.19212341 7.55422592 -3.52020907
-20.17259026 7.56483984 -3.51181293
-20.07982635 7.55772209 -3.52436709
-20.06257629 7.54527617 -3.52017307
-20.18353081 7.57354593 -3.52714610
-20.16283226 7.57636881 -3.52232289
-20.13839722 7.58058596 -3.52340198
-20.09203339 7.56903076 -3.52382493
-20.13314247 7.59297419 -3.51801205
-21.53182030 6.51489401 6.25260305
-21.51549530 6.51646423 6.25356817
-21.51400375 6.53907681 6.25472307
-21.51014328 6.55926800 6.25505686
-21.51306343 6.49179506 6.27609587
-21.48832703 6.56575298 6.27811813
-21.46352959 6.46874523 6.30680799
-21.44595146 6.49080992 6.30121613
-21.45024300 6.51342201 6.31620979
-21.44440842 6.51388597 6.30360079
-21.45479202 6.54083395 6.30507994
-21.44635773 6.56192684 6.31254482
-21.44893074 6.51056099 6.32159424
-21.44512367 6.52613020 6.31943321
-21.48038864 6.57845306 6.30056095
-22.16235352 7.65283918 8.71786499
-22.14357567 7.66300678 8.71895504
-22.13998985 7.69093990 8.72664642
-22.17423058 7.68069506 8.73799706
-22.16280937 7.70067215 8.72006416
-22.72552872 7.73486900 8.68271255
-22.70851326 7.73033810 8.67497921
-22.70855141 7.75395393 8.70209789
-22.70976639 7.73949194 8.72111988
-22.66834068 7.74373722 8.72260094
-22.68792915 7.75738096 8.72946358
-22.66959190 7.75072384 8.72241974
-22.68778992 7.74761581 8.74015808
-22.73735046 7.67944479 8.75196648
-22.72671890 7.68050480 8.75465393
-22.74366951 7.66746712 8.75798607
-22.75438309 7.68020105 8.75356674
-22.73607635 7.68196201 8.77045345
-22.72290421 7.70351315 8.76010036
-22.71304703 7.66761923 8.76815891
-22.72623444 7.69008493 8.76808739
-22.72052193 7.68410015 8.78527641
-22.87386894 7.67472410 10.15659237
-22.87866211 7.58700895 10.13962460
-22.84701920 7.60176516 10.12459087
-22.87447357 7.59592485 10.14340782
-22.86712074 7.70783281 10.17987061
-21.63710594 8.24756145 10.23714256
-21.62646103 8.24958801 10.23396969
-21.63452148 8.27803421 10.22681618
-21.65938950 8.30137062 10.23008156
-21.57258606 8.25526142 10.17164230
-21.60148239 8.24818611 10.16496754
-21.54117203 8.20452118 10.18225861
-20.57082367 7.05842209 0.40706900
-20.49226189 7.04415894 0.43596399
-20.47837448 7.04482222 0.43616700
-20.54600525 7.06289721 0.42539001
-20.52589417 7.05679178 0.43047699
-20.47604370 7.04884100 0.42920500
-20.54414558 7.08434582 0.42966300
-20.54327393 7.10601377 0.42903301
-20.53676605 7.11639786 0.43019700
-20.51551819 7.15927315 0.43888101
-20.42295456 7.18107986 0.42699099
-20.46174812 7.03881311 0.44562900
-20.44776344 7.05893517 0.45478800
-20.43386078 7.06973505 0.45785499
-20.53746605 7.09382582 0.44436401
-20.42605782 7.08403015 0.45407799
-20.54284668 7.10878277 0.45420700
-20.53722954 7.11966419 0.45062101
-20.41940880 7.11175919 0.45343199
-20.52807045 7.13623619 0.45202801
-20.51120186 7.14708710 0.44942001
-20.44167519 7.14651489 0.45651400
-20.43006516 7.13679123 0.45389500
-20.51825905 7.15243196 0.45875400
-20.50321198 7.15767097 0.45412099
-20.47232437 7.16234303 0.45383701
-20.44992256 7.15674210 0.45333901
-20.42169952 7.15560198 0.44305599
-20.54782867 7.03537512 0.41229400
-20.52861977 7.03475904 0.42629600
-20.55992317 7.06016588 0.41139701
-20.57166100 7.07568789 0.40027699
-21.98111916 7.71178102 8.70971298
-21.95626259 7.70674515 8.71856594
-21.97597885 7.72567797 8.71345139
-22.45334816 6.35940695 8.70684528
-22.45320892 6.36111879 8.71429825
-22.45449257 6.36173582 8.67840195
-22.46439171 6.40505791 8.70421600
-22.45375633 6.43104219 8.73071003
-20.23375702 7.20066595 -2.10743403
-20.23422813 7.19797993 -2.08881903
-20.21513367 7.19611502 -2.09237695
-20.19478035 7.19874907 -2.09223294
-20.25904655 7.22144413 -2.09149003
-20.24563408 7.20913792 -2.09520102
-20.26670837 7.23907900 -2.09272504
-20.14371109 7.24615288 -2.09567690
-20.27244759 7.26351881 -2.09365296
-20.26233482 7.29356289 -2.09291005
-20.25762558 7.31079197 -2.08742094
-20.24020767 7.31801605 -2.09347010
-20.23567200 7.33323479 -2.08781290
-20.18148041 7.20650196 -2.06609893
-20.16930008 7.21965122 -2.06770396
-20.15677643 7.23493004 -2.06606507
-20.13769913 7.26546383 -2.06487203
-20.26614571 7.29270792 -2.06707597
-20.13521194 7.29040384 -2.06673503
-20.12103844 7.28849411 -2.07274389
-20.24079132 7.31815910 -2.06666398
-20.21593857 7.32920218 -2.06437111
-20.18426514 7.33050919 -2.06248403
-20.21010017 7.33560324 -2.06996012
-20.19163513 7.33422089 -2.06815600
-20.16066551 7.32117605 -2.04094195
-20.14732552 7.31218100 -2.04205489
-20.41961479 7.21215200 -1.13188303
-20.43430710 7.24363422 -1.12371004
-20.43823814 7.26339722 -1.12949204
-20.41967583 7.31706619 -1.13039804
-20.41572952 7.33870220 -1.12901902
-20.39727211 7.21277714 -1.10543501
-20.37056923 7.21509695 -1.10494900
-20.34914207 7.22217798 -1.10433495
-20.43868828 7.26837921 -1.10496700
-20.43356705 7.26959181 -1.11109102
-20.31614113 7.26592922 -1.10463798
-20.43223381 7.29902220 -1.10493696
-20.42050552 7.31817913 -1.10474503
-20.40795708 7.32950878 -1.10702705
-20.41132736 7.33430719 -1.10107899
-20.39553833 7.33886623 -1.10435498
-20.37152100 7.34467793 -1.10525095
-20.34640121 7.34020090 -1.10571504
-20.34782410 7.22177505 -1.07912898
-20.33610916 7.23127508 -1.07973599
-20.32437325 7.24318218 -1.07950902
-20.31455040 7.26648712 -1.07898903
-20.31433105 7.29215193 -1.08166397
-20.33492470 7.32973623 -1.08005905
-20.32480812 7.31990623 -1.08013201
-20.34646416 7.33863020 -1.07905900
-20.32786560 7.33523607 -1.07437801
-22.77230644 8.29118919 9.65787983
-22.76573563 8.29616928 9.65443802
-22.73898888 8.31198215 9.66255760
-22.71109581 8.30710888 9.54849815
-22.72819710 8.34449005 9.55850887
-22.72071457 8.35716248 9.58139801
-22.64192200 8.33484840 9.63702393
-22.66616821 8.35310841 9.62900543
-22.72808266 8.30634022 9.66287994
-22.72679901 8.33506012 9.66987610
-22.63410759 8.32926655 9.65347958
-22.70401764 8.32795715 9.69567204
-22.55835533 8.25773239 9.70575142
-22.61139297 8.30819702 9.70761681
-22.57543564 8.30299568 9.70894814
-22.56158447 8.27128601 9.71229172
-22.62582016 8.29446697 9.71349812
-22.76576805 8.24812889 9.65096092
-22.71613884 8.31190681 9.66402721
-22.71021843 8.35958767 9.65818882
-22.77608871 8.08722115 9.71453762
-22.70307159 8.33665371 9.59615231
-22.73168182 8.09799385 9.69435310
-22.79006577 8.12494946 9.71782684
-22.80267906 8.14012718 9.72367287
-22.75556564 8.10249424 9.72790813
-22.77905655 8.13161087 9.72493267
-22.73934174 8.13340759 9.74098682
-22.81041145 8.15002632 9.74072361
-22.64820480 8.17247009 9.69916725
-22.66171646 8.15376759 9.70905399
-22.71239281 8.15596008 9.73965645
-22.65036583 8.33638573 9.70256805
-22.79322052 8.18071938 9.71064377
-22.78579330 8.17868710 9.73609543
-22.78459549 8.19349861 9.72935867
-22.71485901 8.12676525 9.73863697
-22.61314392 8.21225739 9.74182224
-22.57752228 8.21668625 9.74023247
-22.75563240 8.30568695 9.56427670
-22.71566772 8.30341911 9.54166603
-22.71028328 8.32469463 9.55079746
-22.58659935 8.20253563 9.71658707
-22.63163376 8.22127724 9.73428726
-22.57208633 8.27918530 9.66753864
-22.56590462 8.27730179 9.66816044
-22.55245590 8.26508141 9.68882561
-22.56465912 8.22278595 9.72403812
-22.70509720 8.20934200 9.74150085
-22.74026680 8.15761471 9.76523113
-22.72556496 8.17061520 9.76320076
-22.68804550 8.17766094 9.76249981
-22.72575569 8.16588974 9.77912045
-22.72629356 8.15217876 9.78249359
-22.80502319 8.13568687 9.74443913
-22.73531723 8.12595558 9.76641464
-22.76506424 8.15073204 9.75659561
-22.70765114 8.22814178 9.76356983
-22.68576431 8.18030739 9.74588585
-22.73373795 8.17529869 9.76220131
-22.75279236 8.12361717 9.75766373
-22.75857353 8.15341377 9.78171444
-22.84028244 7.88567209 10.25958347
-22.76863289 7.90180397 10.30130863
-22.76643562 7.91347218 10.28959465
-22.67154312 7.72416019 10.21248531
-22.74468231 7.76565599 10.27791595
-22.70631790 7.76743698 10.24930573
-22.70728493 7.87759113 10.25736809
-22.71333313 7.86924410 10.28744316
-22.70891380 7.91445017 10.28804588
-22.69964981 7.90270615 10.30173588
-22.74626923 7.85365820 10.23613834
-22.76095200 7.85020781 10.26001263
-22.71510315 7.80176020 10.23185539
-22.79981613 7.68124008 10.24074173
-22.81342888 7.86117792 10.26755714
-22.80250168 7.68852711 10.26109695
-22.80083466 7.70299911 10.27223110
-22.74026871 7.81819296 10.23028278
-22.75240517 7.80951977 10.25242329
-22.74310875 7.80886507 10.25538921
-22.78975296 7.67185116 10.25743103
-22.73219109 7.82942009 10.22583961
-22.72696877 7.75535822 10.22131348
-22.74222374 7.75953197 10.24907684
-22.76691818 7.76912785 10.28711033
-22.76426315 7.80624199 10.28478622
-21.25063705 6.57640696 5.09284115
-21.24559975 6.63412285 5.08520794
-21.22179031 6.66468287 5.09156990
-21.26210022 6.59279394 5.10947609
-21.25919914 6.62082815 5.10786819
-21.24148560 6.61814117 5.10202408
-21.20411301 6.64991713 5.10965586
-21.22200584 6.65893698 5.10828018
-21.16723251 6.62514114 5.13692904
-21.15651894 6.61637020 5.13830519
-21.18074036 6.64298296 5.13398409
-21.16182709 6.61223507 5.15080023
-21.17782974 6.63921690 5.15051985
-22.73798752 6.77522182 9.36680889
-22.71854019 6.77817011 9.39557838
-22.54235458 6.45897102 8.58137989
-22.52365685 6.48336697 8.59748363
-22.52948761 6.48822403 8.62069893
-22.51255798 6.48280907 8.61997223
-22.52372742 6.46111393 8.59042645
-20.46323967 7.27675486 -0.16567600
-20.46344566 7.29223824 -0.16591100
-20.44669724 7.22796297 -0.14276600
-20.44508171 7.24285412 -0.14261600
-20.42274094 7.23367405 -0.14269100
-20.45729065 7.26222897 -0.14395200
-20.46505356 7.28972578 -0.14306900
-20.46091080 7.30303192 -0.14200900
-20.46462822 7.31862211 -0.13692001
-20.45576096 7.32017088 -0.14249399
-20.44375038 7.33987999 -0.14285100
-20.40426636 7.22699022 -0.11596300
-20.39664078 7.23392487 -0.11704900
-20.37278938 7.24598980 -0.11675600
-20.36080551 7.25630713 -0.11788700
-20.35111237 7.26729107 -0.11757400
-20.33995247 7.29259920 -0.11622500
-20.34905434 7.31933689 -0.11746800
-20.44284248 7.33860207 -0.11813900
-20.42284584 7.34995222 -0.11651000
-20.39625931 7.35166216 -0.11713300
-20.37080193 7.34250021 -0.11871000
-20.35482216 7.34247208 -0.11791900
-22.33027458 7.90867281 8.83507633
-22.32208252 7.89166784 8.85386753
-22.36924362 7.86940002 8.85406399
-22.36597633 7.89162493 8.85392094
-22.34232521 7.91500998 8.83679485
-22.30125046 7.87302399 8.84523010
-22.38628197 7.89484978 8.82687378
-22.36796570 7.88781691 8.83155727
-22.35076904 7.89088297 8.85196686
-22.32637596 7.87324095 8.84696388
-22.33645821 7.84200478 8.87061405
-20.20675278 7.40138388 -3.25969005
-20.18911362 7.39920187 -3.26299500
-20.16291428 7.39977217 -3.26319003
-20.14542389 7.40639877 -3.26068592
-20.21755219 7.42566681 -3.26486611
-20.13275146 7.41590595 -3.26328897
-20.11153603 7.42073202 -3.26320410
-20.08856964 7.42819405 -3.26202798
-20.21747780 7.44701290 -3.26144695
-20.07660866 7.44038296 -3.26642394
-20.21084213 7.47502518 -3.26288390
-20.12857628 7.41252279 -3.24395108
-20.07019043 7.42943096 -3.24745297
-20.06542778 7.45042419 -3.23746490
-20.05750275 7.46856689 -3.23615408
-20.20437813 7.49467278 -3.23615694
-20.19806862 7.50630379 -3.23526406
-20.07556343 7.51116180 -3.23300195
-20.06845093 7.49941492 -3.23887610
-20.20297813 7.52919483 -3.23881006
-20.18608093 7.52676296 -3.23660302
-20.16891861 7.53675795 -3.23483896
-20.09915733 7.53986692 -3.22697997
-20.08487511 7.53174591 -3.23499298
-20.15788841 7.54390478 -3.23665595
-20.13597488 7.54961681 -3.23668599
-20.11143303 7.54969788 -3.23808408
-20.11345863 7.54806709 -3.21238708
-20.83707237 6.30440807 6.12445784
-20.81692123 6.28974009 6.12557602
-21.53864670 6.41706610 6.60049915
-21.54098892 6.43406677 6.61477613
-21.54707146 6.45593977 6.61920118
-21.54108429 6.41688013 6.61744595
-21.56355858 6.42680216 6.61556482
-21.56127357 6.43886280 6.59536219
-21.35548782 6.23245478 8.37178993
-21.33028793 6.17590523 8.38899517
-21.31408119 6.20088720 8.38732338
-21.33110046 6.23147821 8.39103603
-21.46121788 6.29564714 8.36658096
-21.44204712 6.29916382 8.36831093
-21.44364929 6.29547310 8.38146019
-21.30713654 6.17571592 8.38338280
-21.31686592 6.22321606 8.39287567
-21.34484863 6.24868488 8.39906406
-21.33631897 6.20834494 8.42771053
-21.44281769 6.27548599 8.36708832
-22.23729134 7.18394613 7.71705389
-22.22923851 7.20334482 7.71487188
-22.20199013 7.20781994 7.71665716
-22.21602058 7.19227791 7.73138380
-22.21714211 7.20740795 7.73911285
-22.23718452 7.16751003 7.71474695
-22.21963882 7.16303682 7.73078680
-22.19925117 7.20473814 7.74271011
-22.23045731 7.14793301 7.75703096
-22.19691467 7.20727301 7.75880814
-22.19613266 7.18601179 7.78101397
-22.17107391 7.18452406 7.78403091
-22.42156219 8.25968838 9.63561153
-22.40692520 8.25816154 9.62006474
-22.41579056 8.27250290 9.63639832
-22.40274811 8.28057671 9.62551594
-22.35036469 8.25298691 9.61504936
-22.34498405 8.28276634 9.59721088
-21.43416023 5.86221600 8.08297825
-21.44165230 5.86103582 8.08903885
-21.46534157 5.86545277 8.07383537
-21.46802330 5.82613087 8.08844185
-20.10540390 7.26160097 -2.24658394
-20.25697136 7.30957508 -2.23680401
-20.22514153 7.32871580 -2.24668503
-20.22900963 7.33463001 -2.24601603
-20.23418999 7.22643518 -2.22190499
-20.21285439 7.21845293 -2.22012997
-20.18907928 7.21428919 -2.22286606
-20.16345978 7.21838284 -2.22297692
-20.14748001 7.22630405 -2.22526097
-20.23829079 7.24156284 -2.22205591
-20.22679329 7.22993517 -2.22809601
-20.15025520 7.22872019 -2.22325706
-20.13530731 7.23788404 -2.22183895
-20.12026978 7.25042820 -2.22333694
-20.25612259 7.26804686 -2.21873808
-20.24929428 7.26527119 -2.22405100
-20.12467575 7.25521088 -2.22173810
-20.11229515 7.26652098 -2.22112107
-20.24754715 7.29316521 -2.22296095
-20.10640144 7.28910017 -2.21888900
-20.25587273 7.31493378 -2.22658706
-20.23672295 7.31617212 -2.22314000
-20.10925484 7.31877279 -2.21711206
-20.09218407 7.31311893 -2.21700311
-20.21121025 7.33895588 -2.22217298
-20.18721008 7.34886789 -2.22358489
-20.19285965 7.35929489 -2.22263908
-20.09659958 7.30147886 -2.20822906
-20.12748528 7.32944584 -2.19594502
-20.11352921 7.31661415 -2.19706106
-20.18755531 7.34495497 -2.19796205
-20.16119957 7.34605503 -2.19761705
-20.13781738 7.33822298 -2.19746900
-22.00803185 7.73721313 8.69992256
-21.99005318 7.72572708 8.69616222
-21.98411942 7.70978212 8.72084332
-22.97792053 7.75868177 9.26733589
-22.95751572 7.76135588 9.23835278
-23.01192093 7.72036409 9.27646446
-23.01198769 7.72421598 9.27603436
-22.96325684 7.73931980 9.26837921
-22.95019150 7.73622322 9.26372814
-22.15821648 8.04466057 10.06089687
-22.14940643 8.04925442 10.06650925
-22.11477852 8.01989937 10.05251217
-21.17966080 6.59555721 4.82958794
-21.18356323 6.59085798 4.85106087
-21.18645477 6.61314821 4.84971905
-21.17075729 6.64290190 4.87189579
-21.15141106 6.65284395 4.87149477
-21.12011909 6.65125704 4.87817478
-21.14777184 6.66129303 4.87420177
-21.10242653 6.62212896 4.90219784
-21.10649109 6.63245916 4.89937401
-21.12466431 6.65709877 4.89728117
-21.11999321 6.55705786 4.86953592
-22.13310814 8.18514442 9.95345116
-22.12597847 8.19245911 9.95651722
-22.08246040 8.13011360 9.96975708
-22.06484985 8.14467812 9.96580410
-22.12945747 8.17435074 9.96087837
-22.11221123 8.17472744 9.96646309
-22.07867050 8.10980797 9.97938156
-22.06702805 8.12578106 9.97248459
-22.11734390 8.02931786 10.01667786
-22.12008667 8.05682373 10.01945305
-22.14164162 8.05531120 10.05128384
-22.09789085 8.15704441 9.96348953
-21.77998161 8.07962036 9.86343575
-21.79108047 8.07476044 9.89669418
-21.78303337 8.07494545 9.89235497
-21.79702187 8.10422611 9.90212822
-21.79525375 8.14133835 9.88393211
-21.79880524 8.05003834 9.92536640
-21.83575249 8.05055141 9.94861603
-21.83566475 8.07006168 9.95766544
-21.89278984 8.02699947 9.96429443
-21.88419533 8.02930260 9.96838093
-21.89683342 8.04428768 9.97536278
-21.88162804 8.04100609 9.96481705
-21.92073250 8.04722309 9.99164867
-21.90621758 8.04873085 9.99579525
-21.88456726 8.04931355 9.98569489
-21.87706947 8.09509087 10.00363445
-21.90107346 8.04598808 10.01059246
-21.82755661 8.21055984 9.95306015
-21.87234879 8.18180561 9.97342300
-21.85261345 8.19598293 9.97180367
-21.84636688 8.19586658 9.99074268
-21.82524681 8.10932446 9.99846077
-21.86090851 8.10184860 10.00310326
-21.85736847 8.08960342 10.01924229
-21.88009071 8.07071686 9.99518585
-21.77665329 8.09391594 9.86957741
-21.78013420 8.09067631 9.90486526
-21.80258560 8.15585327 9.97013187
-21.82512474 8.17775440 9.97480774
-21.80221367 8.17671585 9.97382355
-21.51709366 6.38443518 8.64520836
-21.63394165 6.36476994 8.73214722
-21.62073326 6.36052322 8.72832298
-21.63849640 6.38444424 8.73019123
-21.61433983 6.38372087 8.73136520
