-2.342066382999999874e+01 4.901835919999999902e+00 6.459199999999999664e-02
-2.356637000999999998e+01 4.925950049999999969e+00 6.317200000000000593e-02
-2.356581497000000169e+01 4.953410149999999845e+00 6.363000000000000600e-02
-2.342636870999999843e+01 4.963714119999999674e+00 7.143599999999999950e-02
-2.342124556999999996e+01 4.952764029999999984e+00 6.495700000000000085e-02
-2.356135749999999973e+01 4.975899219999999623e+00 6.731199999999999684e-02
-2.355093193000000085e+01 4.984972950000000402e+00 6.045699999999999685e-02
-2.342843627999999967e+01 4.980669019999999669e+00 6.443100000000000216e-02
-2.342381858999999977e+01 4.975238799999999628e+00 6.436400000000000454e-02
-2.354046440000000118e+01 4.999063010000000418e+00 6.589100000000000512e-02
-2.352116202999999928e+01 5.011724000000000068e+00 6.279800000000000659e-02
-2.343412208999999891e+01 5.006562230000000113e+00 6.529999999999999694e-02
-2.351012421000000074e+01 5.021956920000000046e+00 6.775000000000000466e-02
-2.349117661000000012e+01 5.028183939999999907e+00 6.403899999999999870e-02
-2.346449661000000120e+01 5.027955060000000032e+00 6.561000000000000165e-02
-2.344495772999999872e+01 5.021832940000000356e+00 6.812400000000000400e-02
-2.353829384000000147e+01 4.881977080000000413e+00 8.920400000000000551e-02
-2.351500319999999888e+01 4.872588160000000279e+00 9.178200000000000247e-02
-2.346438789000000114e+01 4.874001980000000067e+00 9.126700000000000090e-02
-2.344245911000000149e+01 4.881986140000000418e+00 8.952499999999999347e-02
-2.343033980999999955e+01 4.896059990000000361e+00 9.349699999999999678e-02
-2.342335509999999843e+01 4.907235149999999990e+00 8.867600000000000482e-02
-2.342168045000000021e+01 4.926691059999999567e+00 9.072500000000000009e-02
-2.348994064000000037e+01 4.876548770000000310e+00 1.161449999999999982e-01
-2.374892615999999990e+01 5.574800009999999695e+00 2.892185930000000127e+00
-2.374251938000000095e+01 5.600766179999999927e+00 2.891921040000000165e+00
-2.334766197000000076e+01 5.616041179999999855e+00 4.828405860000000160e+00
-2.334142685000000128e+01 5.438610080000000124e+00 4.854376789999999886e+00
-2.334446716000000066e+01 5.555041789999999757e+00 4.850109100000000062e+00
-2.348622131000000124e+01 5.573830130000000160e+00 4.857691759999999803e+00
-2.335181618000000014e+01 5.578402040000000284e+00 4.852893830000000186e+00
-2.334674453999999955e+01 5.581933979999999629e+00 4.849875929999999613e+00
-2.344904136999999977e+01 5.608602050000000006e+00 4.855199810000000227e+00
-2.337766265999999860e+01 5.612945080000000253e+00 4.845457080000000083e+00
-2.336214255999999878e+01 5.604119780000000439e+00 4.849452969999999752e+00
-2.334748649999999870e+01 5.591002940000000088e+00 4.843676089999999768e+00
-2.343769646000000151e+01 5.622436050000000130e+00 4.849098210000000186e+00
-2.341441916999999862e+01 5.629415039999999593e+00 4.851450920000000444e+00
-2.338562011999999868e+01 5.625236990000000326e+00 4.847602840000000413e+00
-2.337005614999999992e+01 5.618751999999999747e+00 4.849977970000000305e+00
-2.338894271999999930e+01 5.646965980000000052e+00 4.848389150000000036e+00
-2.337242125999999942e+01 5.644588950000000160e+00 4.861847880000000011e+00
-2.338436317000000031e+01 5.517618180000000372e+00 4.879086019999999912e+00
-2.336150359999999893e+01 5.528396129999999964e+00 4.873925210000000341e+00
-2.347003936999999851e+01 5.557877060000000036e+00 4.872620109999999727e+00
-2.335115241999999824e+01 5.550661090000000186e+00 4.872681140000000077e+00
-2.334478950999999824e+01 5.550662039999999742e+00 4.874437809999999871e+00
-2.346744918999999996e+01 5.579327110000000367e+00 4.872121810000000330e+00
-2.334925270000000097e+01 5.574948789999999654e+00 4.871278760000000041e+00
-2.346340560999999880e+01 5.604780200000000434e+00 4.874478820000000212e+00
-2.345175551999999897e+01 5.608737950000000083e+00 4.868135930000000222e+00
-2.334138869999999955e+01 5.591240879999999969e+00 4.870546820000000388e+00
-2.338656998000000087e+01 5.515511990000000253e+00 4.900961879999999660e+00
-2.338107680999999971e+01 5.472716809999999654e+00 4.851932999999999829e+00
-2.337334823999999855e+01 5.481815809999999622e+00 4.845089910000000444e+00
-2.337177849000000052e+01 5.475522040000000423e+00 4.864439960000000340e+00
-2.338248633999999981e+01 5.428702829999999757e+00 4.856746199999999902e+00
-2.339160919000000050e+01 5.444474220000000031e+00 4.874588969999999577e+00
-2.338991164999999839e+01 5.439128880000000166e+00 4.847713950000000160e+00
-2.335805892999999855e+01 5.442119120000000088e+00 4.856990810000000103e+00
-2.319590187000000014e+01 5.700976849999999985e+00 5.393159869999999856e+00
-2.318387604000000124e+01 5.686614040000000259e+00 5.371650220000000253e+00
-2.319849586000000130e+01 5.698229790000000072e+00 5.374340059999999752e+00
-2.318078995000000120e+01 5.687372210000000372e+00 5.389013770000000036e+00
-2.318686484999999919e+01 5.699494839999999840e+00 5.375759119999999669e+00
-2.353439902999999944e+01 5.282003880000000429e+00 1.968767050000000074e+00
-2.361327552999999924e+01 5.216453079999999964e+00 1.993525980000000031e+00
-2.360222435000000019e+01 5.221123219999999954e+00 1.990471010000000041e+00
-2.358990668999999940e+01 5.233460899999999860e+00 1.987460020000000105e+00
-2.357177161999999981e+01 5.244128230000000279e+00 1.987606999999999902e+00
-2.344845772000000039e+01 5.238739009999999752e+00 1.989534020000000014e+00
-2.355911445999999998e+01 5.259057040000000072e+00 1.991243000000000096e+00
-2.354528426999999979e+01 5.272642140000000310e+00 1.987962009999999946e+00
-2.351333999999999946e+01 5.276865960000000300e+00 1.986677049999999944e+00
-2.346387671999999824e+01 5.264747139999999881e+00 1.988741040000000071e+00
-2.344875907999999853e+01 5.260178090000000140e+00 1.990823980000000049e+00
-2.353400612000000081e+01 5.280320170000000424e+00 1.993101950000000011e+00
-2.351589775000000060e+01 5.282598969999999561e+00 1.991894009999999993e+00
-2.348857307000000105e+01 5.282856940000000279e+00 1.994040009999999974e+00
-2.362372970999999922e+01 5.188329219999999964e+00 2.014374019999999987e+00
-2.344950104000000124e+01 5.195676800000000206e+00 2.016972060000000067e+00
-2.361090087999999909e+01 5.208579059999999927e+00 2.013401990000000197e+00
-2.360297011999999839e+01 5.219195840000000253e+00 2.014476059999999791e+00
-2.345472527000000085e+01 5.210483070000000438e+00 2.011581899999999923e+00
-2.344793701000000041e+01 5.213673110000000221e+00 2.016729119999999931e+00
-2.345262908999999851e+01 5.239510059999999747e+00 2.007499929999999821e+00
-2.344569397000000066e+01 5.237867829999999891e+00 2.013662099999999899e+00
-2.349120522000000122e+01 5.273497100000000160e+00 2.014153959999999799e+00
-2.349122046999999824e+01 5.281867029999999907e+00 2.016046049999999923e+00
-2.359876251000000025e+01 5.133247850000000057e+00 2.038254020000000111e+00
-2.356937599000000105e+01 5.141945839999999990e+00 2.036381959999999935e+00
-2.361871719000000169e+01 5.156459810000000310e+00 2.034838909999999945e+00
-2.360503006000000070e+01 5.162521840000000140e+00 2.038414959999999887e+00
-2.356119156000000103e+01 5.153089999999999726e+00 2.051645039999999920e+00
-2.354105948999999853e+01 5.156427859999999974e+00 2.042310000000000070e+00
-2.351800155999999831e+01 5.165697100000000042e+00 2.041533949999999820e+00
-2.349276160999999874e+01 5.170730110000000046e+00 2.038342950000000098e+00
-2.347540091999999845e+01 5.173378940000000092e+00 2.029630899999999905e+00
-2.348319053999999895e+01 5.175714969999999582e+00 2.047971009999999925e+00
-2.346435547000000099e+01 5.185495849999999685e+00 2.041150089999999917e+00
-2.345073508999999845e+01 5.197279929999999659e+00 2.032064909999999891e+00
-2.321447372000000087e+01 6.522363190000000088e+00 5.529476169999999691e+00
-2.324605178999999922e+01 6.504408839999999969e+00 5.552856919999999974e+00
-2.323592757999999847e+01 6.515246870000000357e+00 5.549571040000000011e+00
-2.342456818000000141e+01 5.363800999999999597e+00 2.951677080000000064e+00
-2.342915726000000021e+01 5.341526029999999814e+00 2.977122070000000065e+00
-2.342413138999999944e+01 5.349576950000000330e+00 2.978518010000000160e+00
-2.351145744000000093e+01 5.363583089999999665e+00 2.979284999999999961e+00
-2.343158912999999899e+01 5.372406009999999732e+00 2.976326939999999865e+00
-2.346544266000000079e+01 5.387301919999999633e+00 2.976458070000000067e+00
-2.344567680000000109e+01 5.385650159999999964e+00 2.977859969999999912e+00
-2.342701339999999988e+01 5.280609130000000206e+00 3.007296090000000088e+00
-2.341977118999999874e+01 5.290259840000000047e+00 3.001785990000000126e+00
-2.354118347000000000e+01 5.319531920000000191e+00 3.004707100000000075e+00
-2.342757607000000064e+01 5.323548790000000253e+00 3.001838919999999966e+00
-2.341994667000000163e+01 5.315374850000000428e+00 3.004532100000000039e+00
-2.353403282000000019e+01 5.338374139999999990e+00 2.999986890000000184e+00
-2.352594376000000054e+01 5.347652909999999871e+00 3.000611070000000158e+00
-2.351280403000000163e+01 5.365026949999999850e+00 3.002629039999999971e+00
-2.349874687000000151e+01 5.377921100000000010e+00 3.001476049999999951e+00
-2.348607253999999855e+01 5.387135980000000046e+00 3.003283020000000025e+00
-2.346451186999999905e+01 5.389690879999999851e+00 3.002511020000000030e+00
-2.349088287000000008e+01 5.259729860000000201e+00 3.027868030000000044e+00
-2.346323204000000118e+01 5.262378220000000439e+00 3.028841970000000217e+00
-2.343811988999999940e+01 5.271030900000000408e+00 3.029011010000000059e+00
-2.354134559999999965e+01 5.293746950000000062e+00 3.028449059999999804e+00
-2.351230431000000110e+01 5.270780089999999696e+00 3.054831029999999892e+00
-2.330398560000000074e+01 5.428318019999999855e+00 5.007423880000000160e+00
-2.329158019999999851e+01 5.428629879999999908e+00 5.004308220000000418e+00
-2.339385032999999936e+01 5.536426070000000088e+00 5.010475160000000372e+00
-2.338216591000000122e+01 5.637759209999999577e+00 5.003693099999999561e+00
-2.339098930000000109e+01 5.649309159999999608e+00 5.005507950000000150e+00
-2.337385367999999985e+01 5.648955820000000294e+00 5.014318939999999891e+00
-2.339797400999999866e+01 5.675056930000000222e+00 5.014005179999999839e+00
-2.329956244999999981e+01 5.456172940000000082e+00 5.021676059999999886e+00
-2.333228111000000027e+01 5.474486830000000026e+00 5.036036969999999613e+00
-2.328748511999999948e+01 5.476630209999999721e+00 5.034906860000000428e+00
-2.330680847000000000e+01 5.500062940000000289e+00 5.026824949999999959e+00
-2.328984641999999994e+01 5.492831230000000176e+00 5.031836030000000015e+00
-2.347458457999999837e+01 5.581436159999999980e+00 5.030870909999999974e+00
-2.335872459000000134e+01 5.581902030000000181e+00 5.029922960000000387e+00
-2.346696663000000171e+01 5.605628969999999711e+00 5.031945229999999825e+00
-2.335706138999999837e+01 5.602631090000000036e+00 5.031216139999999726e+00
-2.334581565999999953e+01 5.601640220000000170e+00 5.031836030000000015e+00
-2.345898246999999870e+01 5.626243109999999881e+00 5.032707209999999876e+00
-2.344228934999999936e+01 5.637496950000000062e+00 5.029205799999999726e+00
-2.336474036999999981e+01 5.627096179999999670e+00 5.034307000000000087e+00
-2.343473625000000027e+01 5.646202090000000062e+00 5.034424780000000155e+00
-2.341300200999999959e+01 5.649631020000000170e+00 5.032530780000000092e+00
-2.339010048000000097e+01 5.649025919999999701e+00 5.028122899999999618e+00
-2.347985840000000124e+01 5.581319810000000103e+00 5.055179120000000026e+00
-2.347667694000000083e+01 5.581628799999999835e+00 5.058392999999999695e+00
-2.330370711999999855e+01 5.475831030000000155e+00 5.027026180000000011e+00
-2.340329932999999940e+01 5.370765210000000067e+00 4.965456009999999587e+00
-2.337531853000000126e+01 5.376079080000000232e+00 4.945120809999999700e+00
-2.340564155999999940e+01 5.381296159999999773e+00 4.984354019999999608e+00
-2.338697433000000103e+01 5.370174880000000428e+00 4.969281200000000176e+00
-2.337112044999999938e+01 5.366549019999999892e+00 4.969696039999999648e+00
-2.340242195000000081e+01 5.990583899999999851e+00 6.909007070000000361e+00
-2.346893500999999915e+01 4.058196070000000155e+00 -3.752228979999999936e+00
-2.358709334999999996e+01 3.881124020000000119e+00 -3.732687949999999866e+00
-2.356990051000000008e+01 3.877137900000000137e+00 -3.727833990000000153e+00
-2.354073905999999994e+01 3.875783919999999938e+00 -3.724921940000000209e+00
-2.351535034000000124e+01 3.881577009999999994e+00 -3.731096979999999785e+00
-2.361558150999999839e+01 3.916049960000000052e+00 -3.733448029999999918e+00
-2.360503006000000070e+01 3.903676030000000186e+00 -3.729546070000000046e+00
-2.348600769000000099e+01 3.910471919999999990e+00 -3.730900049999999801e+00
-2.347595023999999952e+01 3.922904009999999886e+00 -3.730340959999999928e+00
-2.346401596000000112e+01 3.938308950000000142e+00 -3.730809929999999941e+00
-2.345389747999999841e+01 3.955410960000000031e+00 -3.734338049999999853e+00
-2.344720458999999835e+01 3.966723920000000181e+00 -3.730249880000000129e+00
-2.343999863000000161e+01 3.990190979999999943e+00 -3.731071950000000026e+00
-2.344167708999999888e+01 4.016312120000000263e+00 -3.730518099999999837e+00
-2.350982094000000089e+01 4.054245950000000320e+00 -3.734365939999999995e+00
-2.349007415999999893e+01 4.053819179999999633e+00 -3.732144120000000065e+00
-2.346296883000000122e+01 4.045155049999999974e+00 -3.731933119999999882e+00
-2.344698715000000178e+01 4.034869190000000216e+00 -3.726676939999999938e+00
-2.351793479999999903e+01 4.059269910000000259e+00 -3.729084970000000165e+00
-2.348945999000000029e+01 4.058868890000000285e+00 -3.729216099999999923e+00
-2.347257042000000027e+01 4.057409759999999643e+00 -3.735204940000000029e+00
-2.354232597000000027e+01 3.878757949999999788e+00 -3.705282930000000086e+00
-2.351581382999999903e+01 3.883903029999999923e+00 -3.705090049999999913e+00
-2.349831199999999853e+01 3.894989970000000135e+00 -3.704854010000000031e+00
-2.348572539999999975e+01 3.909279109999999946e+00 -3.705004929999999863e+00
-2.362196922000000043e+01 3.936899899999999786e+00 -3.707118990000000114e+00
-2.363474082999999837e+01 3.975661989999999868e+00 -3.704391000000000211e+00
-2.363011550999999955e+01 3.962693929999999920e+00 -3.709232089999999982e+00
-2.345315361000000109e+01 3.953960899999999778e+00 -3.707451110000000050e+00
-2.363729477000000045e+01 3.980928899999999881e+00 -3.705796959999999807e+00
-2.359040260000000089e+01 4.038705829999999608e+00 -3.703147889999999887e+00
-2.357136154000000161e+01 4.050335880000000444e+00 -3.705137010000000064e+00
-2.354766272999999899e+01 4.055478100000000197e+00 -3.707541940000000036e+00
-2.356468010000000035e+01 4.058656219999999593e+00 -3.703023910000000196e+00
-2.354148673999999986e+01 4.060266969999999809e+00 -3.704272029999999827e+00
-2.362381935000000155e+01 3.992993119999999951e+00 -3.679475070000000070e+00
-2.361346245000000010e+01 4.007986070000000289e+00 -3.678617950000000025e+00
-2.360066794999999829e+01 4.019968989999999742e+00 -3.678591969999999822e+00
-2.358793067999999948e+01 4.039271829999999674e+00 -3.678952929999999899e+00
-2.388948441000000145e+01 3.919262890000000166e+00 6.729078770000000098e+00
-2.387471389999999971e+01 3.926760910000000049e+00 6.722359179999999768e+00
-2.387348366000000155e+01 3.923079969999999861e+00 6.741965770000000191e+00
-2.385849380000000153e+01 3.916533949999999820e+00 6.747258190000000155e+00
-2.386723708999999971e+01 3.930021050000000127e+00 6.741960050000000315e+00
-2.387728500000000054e+01 5.582446100000000300e+00 7.790573120000000351e+00
-2.354212761000000143e+01 4.693564890000000212e+00 7.502575870000000258e+00
-2.352575301999999979e+01 4.697992799999999747e+00 7.494308949999999747e+00
-2.350483513000000002e+01 4.715375899999999731e+00 7.527654169999999922e+00
-2.349842834000000025e+01 4.727230070000000062e+00 7.539381030000000372e+00
-2.349713707000000085e+01 4.732575889999999674e+00 7.538184170000000073e+00
-2.347215462000000130e+01 4.745396140000000429e+00 7.527042869999999830e+00
-2.346632766999999831e+01 4.771842959999999856e+00 7.520738119999999860e+00
-2.357331848000000107e+01 5.020473960000000346e+00 7.532443050000000362e+00
-2.363488960000000105e+01 5.009610180000000135e+00 7.585912229999999923e+00
-2.325847625999999835e+01 5.052153109999999891e+00 7.577498910000000087e+00
-2.365263367000000017e+01 4.898634910000000176e+00 7.457417959999999901e+00
-2.364982223999999889e+01 4.890840050000000439e+00 7.470975880000000124e+00
-2.367533875000000165e+01 4.930527210000000160e+00 7.468945979999999984e+00
-2.359147834999999915e+01 4.954371929999999757e+00 7.513074869999999628e+00
-2.357382202000000149e+01 4.985754009999999958e+00 7.513529779999999825e+00
-2.359760666000000029e+01 4.961737160000000202e+00 7.518761160000000388e+00
-2.346278763000000112e+01 4.942499159999999669e+00 7.525598050000000150e+00
-2.358653259000000091e+01 4.983033179999999618e+00 7.519378190000000295e+00
-2.357408141999999884e+01 4.974093909999999674e+00 7.518188949999999870e+00
-2.357574080999999921e+01 5.005619049999999959e+00 7.521943089999999721e+00
-2.351390839000000099e+01 4.922008039999999696e+00 7.528729919999999964e+00
-2.351410484000000167e+01 4.946136949999999644e+00 7.531332970000000238e+00
-2.350470543000000134e+01 4.970066069999999669e+00 7.542780879999999577e+00
-2.325666617999999985e+01 4.857909199999999927e+00 7.598866939999999737e+00
-2.328363799999999983e+01 4.879915239999999876e+00 7.612773899999999649e+00
-2.325649452000000039e+01 4.867893220000000021e+00 7.607991219999999721e+00
-2.327275275999999948e+01 4.889628890000000006e+00 7.607873920000000290e+00
-2.325749396999999874e+01 4.979901790000000439e+00 7.600738050000000356e+00
-2.337845229999999930e+01 5.065020080000000036e+00 7.573709009999999964e+00
-2.330728339999999932e+01 5.036748890000000145e+00 7.558672900000000361e+00
-2.330240440000000035e+01 5.055180069999999581e+00 7.564799790000000357e+00
-2.331227683999999911e+01 5.056584840000000192e+00 7.569269180000000041e+00
-2.334356879999999990e+01 4.796144960000000346e+00 7.502848150000000160e+00
-2.336345482000000118e+01 4.825499060000000284e+00 7.500768179999999674e+00
-2.338079643000000019e+01 4.846386909999999659e+00 7.501611229999999964e+00
-2.333274841000000066e+01 4.790168760000000248e+00 7.523806099999999830e+00
-2.338603973000000025e+01 4.836932179999999803e+00 7.514601230000000243e+00
-2.339147948999999826e+01 4.773348809999999887e+00 7.529091840000000424e+00
-2.359621428999999893e+01 5.012339120000000037e+00 7.528588769999999819e+00
-2.348687744000000066e+01 4.765442850000000341e+00 7.527585979999999566e+00
-2.345930480999999901e+01 4.904631140000000222e+00 7.522717000000000098e+00
-2.343851662000000147e+01 4.924414160000000429e+00 7.518148899999999912e+00
-2.324048424000000068e+01 5.027832029999999897e+00 7.589892859999999963e+00
-2.328096581000000143e+01 5.007327079999999597e+00 7.604015829999999809e+00
-2.343420028999999971e+01 4.907297129999999896e+00 7.517169950000000433e+00
-2.362942314000000010e+01 5.026667119999999933e+00 7.612016200000000232e+00
-2.359977913000000171e+01 5.018704890000000418e+00 7.609873770000000093e+00
-2.362354850999999911e+01 5.024696829999999892e+00 7.623299120000000428e+00
-2.323437500000000000e+01 4.956611159999999572e+00 7.600492000000000026e+00
-2.332534409000000153e+01 5.009163860000000135e+00 7.607602120000000134e+00
-2.328199577000000176e+01 4.992631910000000062e+00 7.626235010000000258e+00
-2.323867797999999851e+01 4.956174850000000021e+00 7.589142800000000300e+00
-2.325133895999999822e+01 4.959046840000000067e+00 7.589710239999999608e+00
-2.323088073999999992e+01 4.970055099999999726e+00 7.585275170000000067e+00
-2.325928878999999938e+01 4.932652000000000037e+00 7.602297779999999783e+00
-2.327342795999999936e+01 4.955111030000000305e+00 7.616196160000000326e+00
-2.325969505000000126e+01 5.028361799999999882e+00 7.602474209999999566e+00
-2.369546890000000161e+01 4.865756990000000393e+00 7.438300130000000010e+00
-2.368272590999999849e+01 4.874226089999999623e+00 7.450926779999999638e+00
-2.369248961999999992e+01 4.839031219999999855e+00 7.507599830000000196e+00
-2.367464447000000050e+01 4.852015019999999623e+00 7.498442169999999685e+00
-2.369131660000000039e+01 4.847557069999999690e+00 7.484439850000000227e+00
-2.345769310000000019e+01 5.043698789999999654e+00 7.569365979999999716e+00
-2.343914412999999897e+01 5.039297099999999752e+00 7.570562840000000016e+00
-2.360320854000000068e+01 4.805373190000000072e+00 7.497323040000000383e+00
-2.371619224999999886e+01 5.943946839999999732e+00 5.945923810000000032e+00
-2.369971848000000136e+01 5.942801949999999778e+00 5.940478800000000170e+00
-2.369751167000000081e+01 5.955975060000000099e+00 5.951337810000000061e+00
-2.363627433999999994e+01 4.745234009999999891e+00 5.349645139999999799e+00
-2.360738372999999868e+01 4.746024130000000341e+00 5.368236060000000087e+00
-2.362326430999999971e+01 4.729632849999999777e+00 5.366940020000000366e+00
-2.364000893000000048e+01 4.739808080000000423e+00 5.365735049999999617e+00
-2.361927604999999986e+01 4.741092209999999696e+00 5.365252019999999789e+00
-2.329236983999999921e+01 5.492000100000000273e+00 6.757213120000000295e+00
-2.329736709999999889e+01 5.473050119999999907e+00 6.768754959999999876e+00
-2.329851723000000163e+01 5.549746039999999603e+00 6.782828809999999820e+00
-2.328085327000000149e+01 5.552017209999999814e+00 6.780744079999999840e+00
-2.326455688000000066e+01 5.550020220000000393e+00 6.776743889999999659e+00
-2.332326317000000060e+01 5.475298880000000423e+00 6.751637940000000171e+00
-2.332735442999999975e+01 5.473871230000000310e+00 6.763020990000000232e+00
-2.332237053000000060e+01 5.487853999999999566e+00 6.765756129999999757e+00
-2.333024978999999988e+01 5.474140170000000083e+00 6.803088190000000424e+00
-2.330187224999999884e+01 5.458076000000000150e+00 6.771118160000000330e+00
-2.445264815999999897e+01 6.230127809999999933e+00 4.016704080000000232e+00
-2.446936798000000124e+01 6.232298850000000279e+00 4.018589969999999845e+00
-2.445157050999999981e+01 6.255210879999999918e+00 4.017220019999999892e+00
-2.447304152999999971e+01 6.240526199999999690e+00 3.998882060000000127e+00
-2.443644713999999851e+01 6.242507930000000371e+00 4.017776010000000397e+00
-2.443440818999999919e+01 6.232366090000000192e+00 4.015379910000000052e+00
-2.360951041999999944e+01 5.125893119999999747e+00 4.741168980000000310e+00
-2.359713363999999913e+01 5.117171759999999736e+00 4.731009959999999737e+00
-2.358800888000000029e+01 5.149107930000000444e+00 4.759552000000000227e+00
-2.359933472000000165e+01 5.139918800000000232e+00 4.746749880000000310e+00
-2.359562873999999866e+01 5.132741929999999897e+00 4.768744950000000316e+00
-2.327921677000000145e+01 5.787365910000000113e+00 7.946236129999999953e+00
-2.328061676000000091e+01 5.863875870000000212e+00 7.974552150000000061e+00
-2.332821464999999961e+01 5.816215989999999891e+00 7.973215100000000000e+00
-2.330567741000000126e+01 5.808661940000000357e+00 7.973383899999999969e+00
-2.329526329000000118e+01 5.794397830000000305e+00 7.982830049999999567e+00
-2.327181434999999965e+01 5.840682980000000413e+00 7.966073989999999938e+00
-2.329503440999999953e+01 5.770689960000000340e+00 7.892245769999999716e+00
-2.331587601000000021e+01 5.760554789999999592e+00 7.930795190000000439e+00
-2.327364539999999948e+01 5.805787089999999928e+00 7.960835930000000005e+00
-2.330215454000000008e+01 5.795453069999999762e+00 7.843471049999999778e+00
-2.331632422999999932e+01 5.810170170000000134e+00 7.832591060000000383e+00
-2.331562805000000083e+01 4.918080810000000191e+00 7.470683099999999577e+00
-2.333429526999999837e+01 4.919342040000000083e+00 7.471335889999999758e+00
-2.334555054000000140e+01 4.943698880000000351e+00 7.484296800000000083e+00
-2.333829117000000153e+01 4.924903869999999628e+00 7.492337230000000403e+00
-2.328062248000000167e+01 4.926692010000000010e+00 7.421678069999999572e+00
-2.326559830000000062e+01 4.936663150000000222e+00 7.425879959999999613e+00
-2.331262588999999963e+01 4.903089999999999726e+00 7.456329819999999664e+00
-2.327763175999999845e+01 4.948062900000000042e+00 7.429763789999999979e+00
-2.326943207000000058e+01 4.941370009999999979e+00 7.430902960000000057e+00
-2.327767563000000095e+01 4.937255859999999608e+00 7.436731820000000326e+00
-2.328372764999999944e+01 5.469801900000000217e+00 6.754178050000000155e+00
-2.326482200999999961e+01 5.475969789999999726e+00 6.753286840000000346e+00
-2.328253554999999864e+01 5.469983100000000320e+00 6.762345790000000356e+00
-2.326476479000000097e+01 5.478477950000000263e+00 6.762128829999999979e+00
-2.331919097999999835e+01 5.499629969999999979e+00 6.731023790000000062e+00
-2.331231307999999913e+01 5.496987820000000191e+00 6.743628029999999995e+00
-2.330583190999999843e+01 5.470228200000000207e+00 6.728989119999999602e+00
-2.333189391999999884e+01 5.506316179999999783e+00 6.729945179999999638e+00
-2.333051109000000167e+01 5.496481900000000032e+00 6.742811200000000227e+00
-2.344582939000000010e+01 4.951902869999999623e+00 7.138855930000000072e+00
-2.351717376999999942e+01 4.954699040000000387e+00 7.162697790000000175e+00
-2.350211716000000095e+01 4.956689830000000185e+00 7.174389839999999907e+00
-2.351116753000000159e+01 4.972997190000000067e+00 7.165781970000000278e+00
-2.351001739999999884e+01 4.972827910000000351e+00 7.183289049999999953e+00
-2.349457169000000079e+01 4.979018210000000444e+00 7.188525199999999948e+00
-2.349258232000000035e+01 4.920491219999999721e+00 7.143321989999999566e+00
-2.347197723000000025e+01 4.937718870000000315e+00 7.135695929999999798e+00
-2.439562606999999872e+01 5.868897910000000273e+00 7.783718109999999690e+00
-2.440034676000000147e+01 5.885392190000000134e+00 7.787757870000000082e+00
-2.438613129000000157e+01 5.878931999999999825e+00 7.794569970000000403e+00
-2.437905693000000085e+01 5.865454200000000284e+00 7.814671989999999901e+00
-2.336618613999999994e+01 4.241325859999999892e+00 -2.820117000000000207e+00
-2.334833144999999988e+01 4.138957979999999814e+00 -2.792267079999999790e+00
-2.334538077999999928e+01 4.147616860000000294e+00 -2.795380119999999913e+00
-2.334066582000000167e+01 4.172976969999999675e+00 -2.794795039999999897e+00
-2.333477020000000124e+01 4.198553089999999877e+00 -2.794564010000000209e+00
-2.331734085000000078e+01 4.203323840000000367e+00 -2.806385989999999886e+00
-2.348593139999999835e+01 4.226753229999999917e+00 -2.794034959999999845e+00
-2.346592521999999903e+01 4.233150959999999685e+00 -2.794783119999999954e+00
-2.344270706000000004e+01 4.235679150000000170e+00 -2.798751119999999926e+00
-2.342515944999999888e+01 4.236476900000000434e+00 -2.807729960000000080e+00
-2.334930037999999897e+01 4.233296870000000212e+00 -2.802125929999999876e+00
-2.333860779000000107e+01 4.224885940000000062e+00 -2.794559959999999954e+00
-2.346479796999999934e+01 4.241252900000000103e+00 -2.791795969999999905e+00
-2.344490432999999996e+01 4.240394120000000378e+00 -2.796294930000000178e+00
-2.341274642999999855e+01 4.249581809999999571e+00 -2.797032119999999900e+00
-2.338609886000000060e+01 4.251290799999999592e+00 -2.799076079999999855e+00
-2.334461974999999967e+01 4.241067890000000062e+00 -2.792844060000000184e+00
-2.341570662999999897e+01 4.080763819999999598e+00 -2.774311069999999990e+00
-2.346155166999999864e+01 4.091616150000000118e+00 -2.769282099999999858e+00
-2.344009209000000027e+01 4.084879879999999908e+00 -2.766135929999999910e+00
-2.340970802000000006e+01 4.084239959999999670e+00 -2.764942879999999992e+00
-2.338688660000000041e+01 4.089190010000000264e+00 -2.768891099999999827e+00
-2.336511421000000155e+01 4.100881099999999613e+00 -2.769442080000000139e+00
-2.335193443000000002e+01 4.120288849999999670e+00 -2.768817900000000165e+00
-2.334597777999999835e+01 4.128577230000000320e+00 -2.772860999999999798e+00
-2.334640120999999979e+01 4.146995070000000005e+00 -2.769469980000000220e+00
-2.353287315000000035e+01 4.171170230000000423e+00 -2.774194000000000049e+00
-2.350875472999999971e+01 4.173975940000000051e+00 -2.772026059999999958e+00
-2.345749474000000134e+01 4.095573899999999767e+00 -2.742757080000000069e+00
-2.343811034999999876e+01 4.089032170000000299e+00 -2.743752960000000130e+00
-2.335510062999999903e+01 6.409340860000000362e+00 5.338809969999999794e+00
-2.334393310999999827e+01 6.409122939999999602e+00 5.336613179999999623e+00
-2.335590743999999930e+01 6.384116170000000423e+00 5.365207200000000398e+00
-2.333631516000000161e+01 6.388781070000000284e+00 5.369006159999999639e+00
-2.334953690000000037e+01 6.391839980000000310e+00 5.383680820000000367e+00
-2.420267296000000101e+01 5.532432080000000418e+00 7.217337129999999767e+00
-2.421352577000000039e+01 5.545444009999999757e+00 7.214086059999999634e+00
-2.421748542999999998e+01 5.538363930000000046e+00 7.228432180000000429e+00
-2.421394730000000095e+01 5.533971789999999835e+00 7.214716909999999928e+00
-2.420666694999999891e+01 5.529797079999999809e+00 7.197004800000000202e+00
-2.395456314000000120e+01 3.987364050000000049e+00 6.779383179999999953e+00
-2.395959282000000101e+01 3.991650100000000201e+00 6.792524809999999746e+00
-2.393139267000000103e+01 3.985415940000000212e+00 6.805430890000000232e+00
-2.391924286000000066e+01 3.979367970000000199e+00 6.807197089999999839e+00
-2.393901443000000029e+01 3.993747949999999935e+00 6.817574979999999840e+00
-2.312520217999999872e+01 5.622366910000000217e+00 7.896098140000000321e+00
-2.299060058999999967e+01 5.788500789999999618e+00 5.701830860000000278e+00
-2.298807143999999880e+01 5.810006139999999597e+00 5.704517840000000284e+00
-2.299029541000000165e+01 5.802595140000000207e+00 5.686293130000000140e+00
-2.297312163999999868e+01 5.803125859999999747e+00 5.690117840000000093e+00
-2.298574637999999837e+01 5.790660860000000021e+00 5.725564959999999814e+00
-2.347504616000000155e+01 4.018972869999999808e+00 -4.636593819999999866e+00
-2.348184776000000085e+01 4.045740130000000434e+00 -4.642434119999999886e+00
-2.347590064999999981e+01 4.036406989999999695e+00 -4.641029829999999912e+00
-2.356851767999999936e+01 4.103692050000000258e+00 -4.640377039999999731e+00
-2.355278969000000089e+01 4.110789780000000171e+00 -4.644696240000000032e+00
-2.363794517999999911e+01 3.919976950000000127e+00 -4.618096829999999819e+00
-2.362080192999999895e+01 3.906387089999999951e+00 -4.613562110000000160e+00
-2.359572410999999903e+01 3.903512950000000092e+00 -4.615180969999999938e+00
-2.356955909999999932e+01 3.910659069999999904e+00 -4.614972110000000072e+00
-2.354367828000000173e+01 3.920368910000000096e+00 -4.614881989999999767e+00
-2.352863311999999851e+01 3.924627070000000106e+00 -4.608088020000000284e+00
-2.364690017999999938e+01 3.938580040000000171e+00 -4.614356990000000103e+00
-2.351986313000000095e+01 3.938807010000000108e+00 -4.614771840000000402e+00
-2.365631103999999851e+01 3.957304950000000154e+00 -4.609808919999999866e+00
-2.350814819000000000e+01 3.956852909999999834e+00 -4.615747930000000387e+00
-2.349827003000000047e+01 3.969316960000000005e+00 -4.614467140000000356e+00
-2.348783493000000178e+01 3.990510940000000062e+00 -4.614903929999999654e+00
-2.346936798000000124e+01 3.997191910000000181e+00 -4.607503890000000268e+00
-2.347479819999999862e+01 4.020084859999999871e+00 -4.617715839999999794e+00
-2.351354407999999907e+01 4.071962830000000366e+00 -4.613798140000000103e+00
-2.349139213999999853e+01 4.065865040000000263e+00 -4.612339969999999845e+00
-2.347073745999999872e+01 4.074376110000000217e+00 -4.606359000000000314e+00
-2.359644318000000141e+01 4.101826189999999706e+00 -4.615394120000000378e+00
-2.356814956999999922e+01 4.102598190000000145e+00 -4.614662169999999897e+00
-2.354216193999999973e+01 4.090984820000000077e+00 -4.615078930000000135e+00
-2.350994301000000064e+01 4.090599059999999731e+00 -4.618977069999999685e+00
-2.358805847000000000e+01 4.108696939999999742e+00 -4.614456180000000352e+00
-2.357219695999999942e+01 4.112556930000000222e+00 -4.623116969999999881e+00
-2.353984069999999917e+01 4.108140950000000124e+00 -4.622664930000000005e+00
-2.360364531999999826e+01 3.898197890000000054e+00 -4.592376230000000170e+00
-2.351620864999999938e+01 3.938977959999999889e+00 -4.588861940000000139e+00
-2.366111564999999928e+01 3.969603059999999850e+00 -4.596776959999999690e+00
-2.365737723999999886e+01 3.964375969999999860e+00 -4.584962840000000206e+00
-2.366509628000000021e+01 3.991652010000000139e+00 -4.589334960000000407e+00
-2.365884781000000103e+01 3.988943100000000186e+00 -4.583653929999999654e+00
-2.366721534999999932e+01 4.015731810000000124e+00 -4.589732170000000444e+00
-2.364705848999999915e+01 4.073431969999999680e+00 -4.588562969999999908e+00
-2.363754653999999888e+01 4.088465209999999850e+00 -4.589687819999999974e+00
-2.361974335000000025e+01 4.090031149999999727e+00 -4.588139059999999603e+00
-2.366622733999999895e+01 4.045153140000000036e+00 -4.563708779999999798e+00
-2.366349602000000019e+01 4.062469959999999602e+00 -4.565671919999999773e+00
-2.364769362999999913e+01 4.084194179999999896e+00 -4.569571019999999706e+00
-2.382081031999999965e+01 5.597403049999999602e+00 8.050382609999999772e+00
-2.444920158000000043e+01 6.235785009999999851e+00 4.092741010000000124e+00
-2.443614005999999961e+01 6.227962019999999654e+00 4.095181939999999798e+00
-2.445188522000000120e+01 6.257248879999999680e+00 4.092568870000000025e+00
-2.443360519000000153e+01 6.257921220000000062e+00 4.095036979999999716e+00
-2.444703674000000149e+01 6.269856930000000439e+00 4.098278050000000228e+00
-2.443437576000000178e+01 6.269153120000000357e+00 4.097441199999999561e+00
-2.446227263999999835e+01 6.305882930000000108e+00 4.065793990000000413e+00
-2.446747208000000029e+01 6.245154860000000419e+00 4.089027879999999726e+00
-2.447679328999999981e+01 6.308001039999999726e+00 4.066449170000000279e+00
-2.384787749999999917e+01 3.965241910000000036e+00 6.073980810000000119e+00
-2.383603477000000126e+01 3.967613940000000117e+00 6.074914930000000268e+00
-2.387328147999999928e+01 4.000379090000000026e+00 6.077240940000000258e+00
-2.342445564000000147e+01 4.604209899999999855e+00 -1.535943980000000098e+00
-2.353222656000000157e+01 4.514289859999999877e+00 -1.518615009999999987e+00
-2.353180313000000012e+01 4.539227959999999840e+00 -1.516939040000000016e+00
-2.350866889999999998e+01 4.554664129999999922e+00 -1.519786950000000081e+00
-2.349653435000000101e+01 4.567347999999999963e+00 -1.522078040000000021e+00
-2.348428154000000134e+01 4.583623890000000145e+00 -1.520760059999999969e+00
-2.346623038999999977e+01 4.595526219999999995e+00 -1.522753950000000023e+00
-2.344173431000000107e+01 4.600924019999999892e+00 -1.527158980000000055e+00
-2.341089248999999839e+01 4.598107810000000129e+00 -1.522614960000000073e+00
-2.338477516000000023e+01 4.586617949999999944e+00 -1.522245049999999988e+00
-2.337072944999999891e+01 4.579538819999999788e+00 -1.514974000000000043e+00
-2.343948363999999884e+01 4.605723860000000336e+00 -1.519294020000000023e+00
-2.341994095000000087e+01 4.603839869999999834e+00 -1.517635939999999906e+00
-2.338736343000000062e+01 4.604771140000000429e+00 -1.522613999999999912e+00
-2.341645049999999983e+01 4.439935209999999799e+00 -1.496917959999999992e+00
-2.340590668000000107e+01 4.449256899999999959e+00 -1.490546939999999987e+00
-2.338994788999999841e+01 4.461009980000000041e+00 -1.496122959999999891e+00
-2.352382659999999959e+01 4.481402870000000149e+00 -1.497156020000000032e+00
-2.337796021000000124e+01 4.476263050000000021e+00 -1.492100949999999981e+00
-2.336770247999999839e+01 4.487734790000000196e+00 -1.494969959999999931e+00
-2.353279876999999942e+01 4.515799999999999592e+00 -1.495424990000000065e+00
-2.352802467000000064e+01 4.513790130000000289e+00 -1.495915059999999963e+00
-2.335594177000000116e+01 4.510310170000000340e+00 -1.494601010000000008e+00
-2.352000045999999855e+01 4.540311810000000392e+00 -1.495942000000000105e+00
-2.335463332999999864e+01 4.536972050000000145e+00 -1.495179059999999893e+00
-2.337428283999999934e+01 4.575993060000000057e+00 -1.492069010000000029e+00
-2.336389541999999864e+01 4.562467100000000109e+00 -1.494353059999999900e+00
-2.337133788999999950e+01 4.581626889999999896e+00 -1.497908000000000017e+00
-2.346135139000000081e+01 4.439867969999999886e+00 -1.468765019999999977e+00
-2.343949890000000025e+01 4.440579890000000418e+00 -1.470265979999999972e+00
-2.342166518999999880e+01 4.443851949999999995e+00 -1.477800009999999942e+00
-2.348740768000000045e+01 4.452397819999999840e+00 -1.468263979999999913e+00
-2.338139915000000002e+01 4.479109760000000051e+00 -1.468564989999999959e+00
-2.354084586999999829e+01 5.042426110000000072e+00 5.064764020000000144e+00
-2.341910744000000122e+01 5.079301830000000351e+00 5.079780099999999798e+00
-2.343478393999999909e+01 5.063799859999999597e+00 5.081524850000000093e+00
-2.348435973999999860e+01 5.060908790000000046e+00 5.104775909999999861e+00
-2.345683289000000116e+01 5.058746809999999705e+00 5.105665209999999732e+00
-2.342945671000000019e+01 5.093012810000000279e+00 5.100669860000000000e+00
-2.340996552000000008e+01 5.088676930000000098e+00 5.116065029999999680e+00
-2.341991425000000149e+01 5.119312759999999685e+00 5.106895920000000366e+00
-2.341005897999999874e+01 5.130930900000000072e+00 5.113519189999999881e+00
-2.378972815999999924e+01 5.461350920000000109e+00 2.761471030000000049e+00
-2.376213073999999992e+01 5.425675870000000067e+00 2.767858030000000191e+00
-2.382582282999999990e+01 5.478826050000000336e+00 2.738033059999999796e+00
-2.380415344000000033e+01 5.499386789999999969e+00 2.742851019999999806e+00
-2.378723717000000093e+01 5.493793010000000088e+00 2.738552090000000216e+00
-2.381949042999999833e+01 5.502056119999999773e+00 2.729947090000000021e+00
-2.378633118000000124e+01 5.486938949999999870e+00 2.727231030000000001e+00
-2.381491469999999921e+01 5.476246830000000010e+00 2.736856940000000016e+00
-2.376352310000000045e+01 5.434260850000000254e+00 2.770440100000000072e+00
-2.412564850000000050e+01 5.853758810000000423e+00 3.268906120000000026e+00
-2.414075851000000128e+01 5.835811139999999675e+00 3.288291930000000196e+00
-2.411360359000000031e+01 5.842043880000000300e+00 3.285749909999999829e+00
-2.412441635000000062e+01 5.858129019999999798e+00 3.287760969999999894e+00
-2.367455864000000076e+01 5.532379149999999690e+00 7.642776969999999892e+00
-2.366931152000000083e+01 5.558131219999999928e+00 7.655466080000000062e+00
-2.366885184999999936e+01 5.476142880000000268e+00 7.626554010000000439e+00
-2.361517333999999835e+01 5.351559159999999871e+00 7.631227019999999861e+00
-2.357402992000000097e+01 5.369975089999999618e+00 7.682932850000000258e+00
-2.363930129999999963e+01 5.416217800000000082e+00 7.682310099999999586e+00
-2.358635521000000068e+01 5.373985769999999995e+00 7.706426139999999592e+00
-2.357849120999999926e+01 5.370128150000000211e+00 7.704377169999999886e+00
-2.358092116999999988e+01 5.382596969999999814e+00 7.708989139999999907e+00
-2.364493179000000112e+01 5.421755789999999742e+00 7.640013220000000160e+00
-2.367070770000000124e+01 5.442694190000000098e+00 7.638418200000000269e+00
-2.364487075999999988e+01 5.421423909999999680e+00 7.658871170000000284e+00
-2.362162398999999979e+01 5.394625190000000181e+00 7.686390880000000259e+00
-2.373871613000000025e+01 5.567287920000000057e+00 7.615242959999999783e+00
-2.374784851000000074e+01 5.490285870000000124e+00 7.642559050000000020e+00
-2.372082328999999845e+01 5.574597840000000026e+00 7.632761000000000351e+00
-2.372465134000000120e+01 5.559063909999999886e+00 7.633473870000000439e+00
-2.370416640999999913e+01 5.560101030000000222e+00 7.628356929999999814e+00
-2.370384788999999870e+01 5.561656000000000155e+00 7.650700089999999953e+00
-2.366243744000000149e+01 5.454954149999999835e+00 7.645289899999999861e+00
-2.364424514999999971e+01 5.455056189999999638e+00 7.654226780000000119e+00
-2.366530417999999969e+01 5.473022939999999892e+00 7.657308099999999840e+00
-2.364516830000000169e+01 5.457215790000000233e+00 7.684142109999999803e+00
-2.362675095000000169e+01 5.446874140000000253e+00 7.682916160000000438e+00
-2.362623977999999880e+01 5.486895080000000036e+00 7.690753939999999567e+00
-2.363899422000000072e+01 5.471137050000000279e+00 7.698876860000000377e+00
-2.365145492999999988e+01 5.496070859999999669e+00 7.680312159999999722e+00
-2.367741776000000087e+01 5.569955829999999608e+00 7.659288880000000077e+00
-2.367016982999999897e+01 5.497948169999999912e+00 7.658007139999999602e+00
-2.366590691000000035e+01 5.524456019999999690e+00 7.652280809999999711e+00
-2.304623984999999919e+01 4.938169959999999747e+00 8.345607760000000042e+00
-2.307125664000000143e+01 4.935728069999999690e+00 8.358825680000000702e+00
-2.305562972999999971e+01 4.934360980000000119e+00 8.353275299999999959e+00
-2.306985664000000114e+01 4.950933929999999705e+00 8.353854180000000795e+00
-2.309817122999999839e+01 4.972699170000000279e+00 8.382504459999999824e+00
-2.309321784999999849e+01 4.954297069999999970e+00 8.410772319999999524e+00
-2.406664658000000045e+01 5.780001160000000304e+00 3.159388069999999882e+00
-2.407982635000000116e+01 5.759522910000000273e+00 3.138408899999999946e+00
-2.408485413000000008e+01 5.772137169999999706e+00 3.144321919999999881e+00
-2.408955764999999971e+01 5.766020769999999906e+00 3.155920029999999876e+00
-2.406586074999999880e+01 5.774176119999999912e+00 3.141174079999999869e+00
-2.405764579999999953e+01 5.764778139999999773e+00 3.155371900000000007e+00
-2.301358413999999897e+01 5.753990169999999793e+00 5.659141059999999612e+00
-2.299785805000000138e+01 5.759243969999999990e+00 5.657012940000000434e+00
-2.300736618000000178e+01 5.743249890000000413e+00 5.679709909999999695e+00
-2.301368523000000010e+01 5.754434110000000047e+00 5.672889230000000005e+00
-2.300114250000000027e+01 5.762126920000000041e+00 5.680170060000000021e+00
-2.333211899000000145e+01 5.661273000000000444e+00 7.883111000000000423e+00
-2.350951575999999932e+01 5.087287899999999752e+00 5.033813949999999870e+00
-2.345041656000000074e+01 5.140419009999999567e+00 5.035191059999999830e+00
-2.344729042000000163e+01 5.112147809999999737e+00 5.050361159999999572e+00
-2.347686957999999890e+01 5.161354059999999855e+00 5.014505859999999871e+00
-2.349087714999999932e+01 5.192745210000000000e+00 4.994646069999999938e+00
-2.346828650999999866e+01 5.077826980000000212e+00 5.039977069999999948e+00
-2.345901870999999872e+01 5.154437070000000176e+00 5.024602889999999711e+00
-2.344966888000000083e+01 5.155644889999999592e+00 5.026756759999999602e+00
-2.361707115000000101e+01 5.283436779999999722e+00 5.012133119999999664e+00
-2.361155890999999940e+01 5.307207110000000228e+00 5.017253880000000166e+00
-2.362359427999999895e+01 5.292850969999999933e+00 5.031505110000000336e+00
-2.351591492000000017e+01 5.239858149999999881e+00 5.004783149999999736e+00
-2.353986358999999950e+01 5.254330160000000305e+00 5.003663060000000051e+00
-2.353153992000000017e+01 5.234838009999999819e+00 5.036373140000000248e+00
-2.351767921000000072e+01 5.259226800000000424e+00 5.022850990000000238e+00
-2.352208137999999948e+01 5.097361089999999706e+00 5.035983090000000217e+00
-2.352179145999999932e+01 5.087092880000000150e+00 5.049080850000000176e+00
-2.353129578000000066e+01 5.097857949999999860e+00 5.045046809999999660e+00
-2.352612686000000153e+01 5.100650790000000434e+00 5.047369960000000155e+00
-2.358987236000000109e+01 5.246359830000000279e+00 5.011889929999999715e+00
-2.359266663000000008e+01 5.267591949999999912e+00 5.007257939999999685e+00
-2.357576179999999866e+01 5.268847939999999674e+00 5.005022050000000000e+00
-2.351269531000000157e+01 5.224259850000000149e+00 5.027513029999999716e+00
-2.348699188000000149e+01 5.211638930000000336e+00 4.996316910000000000e+00
-2.351768111999999888e+01 5.234969139999999577e+00 5.028645990000000232e+00
-2.362488173999999930e+01 5.250919820000000016e+00 5.058458810000000305e+00
-2.348858643000000157e+01 5.194878100000000387e+00 4.984539990000000032e+00
-2.349238777000000056e+01 5.210083960000000403e+00 4.986156939999999871e+00
-2.349300003000000103e+01 5.240643020000000263e+00 5.000351910000000011e+00
-2.358684158000000153e+01 5.253395079999999773e+00 5.026001929999999618e+00
-2.366225052000000062e+01 5.195682050000000274e+00 5.032856940000000279e+00
-2.364571189999999845e+01 5.196009160000000016e+00 5.032611850000000331e+00
-2.367134094000000033e+01 5.216691970000000289e+00 5.039600850000000243e+00
-2.364729691000000145e+01 5.207369800000000382e+00 5.035137180000000434e+00
-2.363181686000000070e+01 5.204894069999999928e+00 5.029243949999999685e+00
-2.367541504000000074e+01 5.217031000000000418e+00 5.044302939999999680e+00
-2.374776840000000178e+01 5.710418220000000211e+00 7.951103210000000310e+00
-2.374469756999999959e+01 5.712380890000000377e+00 7.977676869999999809e+00
-2.372623633999999981e+01 5.708261010000000191e+00 7.966884140000000336e+00
-2.436659622000000169e+01 5.833171840000000330e+00 7.679738999999999649e+00
-2.435544777000000138e+01 5.830140110000000320e+00 7.683279989999999948e+00
-2.435602378999999829e+01 5.833549020000000418e+00 7.706580159999999680e+00
-2.359445571999999913e+01 5.215757850000000140e+00 4.590901849999999840e+00
-2.357220840000000095e+01 5.236392020000000258e+00 4.586811070000000434e+00
-2.357727241999999990e+01 5.260388850000000005e+00 4.583311079999999649e+00
-2.360920142999999882e+01 5.222260949999999902e+00 4.595828059999999660e+00
-2.359052276999999975e+01 5.257059100000000207e+00 4.602003100000000124e+00
-2.357848358000000033e+01 5.220280169999999664e+00 4.594140050000000031e+00
-2.361153983999999895e+01 5.230988029999999789e+00 4.584262850000000000e+00
-2.359586142999999936e+01 5.263453010000000099e+00 4.583230969999999793e+00
-2.335458945999999969e+01 4.199070930000000423e+00 -2.924628970000000106e+00
-2.334534453999999926e+01 4.191428179999999948e+00 -2.920089009999999874e+00
-2.345526313999999957e+01 4.219639779999999618e+00 -2.923650980000000121e+00
-2.341297721999999837e+01 4.218090059999999752e+00 -2.921511890000000111e+00
-2.338792228999999878e+01 4.217206949999999566e+00 -2.921492100000000036e+00
-2.336914061999999959e+01 4.214860919999999567e+00 -2.923280950000000100e+00
-2.340419196999999940e+01 4.057598109999999814e+00 -2.892455099999999835e+00
-2.338640593999999950e+01 4.063591960000000114e+00 -2.898859980000000114e+00
-2.336396407999999880e+01 4.075159069999999772e+00 -2.899951929999999845e+00
-2.335197067000000004e+01 4.087107180000000284e+00 -2.897950890000000168e+00
-2.334381103999999851e+01 4.099100110000000186e+00 -2.900017019999999945e+00
-2.333932685999999990e+01 4.120483880000000099e+00 -2.898509980000000041e+00
-2.333998679999999837e+01 4.147308830000000057e+00 -2.898834939999999971e+00
-2.350798988000000023e+01 4.174345970000000072e+00 -2.898164990000000163e+00
-2.334222602999999907e+01 4.173546789999999618e+00 -2.898499010000000098e+00
-2.348668671000000074e+01 4.202125070000000129e+00 -2.900358919999999952e+00
-2.347330475000000050e+01 4.209035870000000124e+00 -2.899780990000000003e+00
-2.335266303999999948e+01 4.204645160000000104e+00 -2.902481079999999825e+00
-2.334411620999999926e+01 4.195278169999999918e+00 -2.896503930000000171e+00
-2.343944739999999882e+01 4.220170020000000299e+00 -2.899662020000000062e+00
-2.345981215999999847e+01 4.051965240000000357e+00 -2.874172929999999848e+00
-2.343796157999999963e+01 4.050527100000000047e+00 -2.873682979999999887e+00
-2.341922379000000021e+01 4.053854939999999907e+00 -2.874144080000000212e+00
-2.339182471999999890e+01 4.054565909999999995e+00 -2.875114920000000129e+00
-2.347329330000000169e+01 4.058475020000000377e+00 -2.868683100000000152e+00
-2.340773391999999831e+01 4.059400079999999633e+00 -2.870867009999999997e+00
-2.338645362999999833e+01 4.068175789999999736e+00 -2.873202089999999931e+00
-2.336745452999999983e+01 4.077878000000000114e+00 -2.875293019999999977e+00
-2.334532928000000140e+01 4.101566789999999685e+00 -2.875118969999999941e+00
-2.350756644999999878e+01 4.120477199999999840e+00 -2.872415070000000181e+00
