15.273363 214.42972 -9.9686594
15.2933 214.44002 -9.9705153
15.248217 214.46097 -9.9709835
15.268622 214.46097 -9.9716282
15.298248 214.45634 -9.9701691
15.270661 214.48123 -9.9776049
15.292582 214.47421 -9.9782143
15.388396 214.78406 -9.971117
15.404297 214.77953 -9.9667902
15.448545 214.78328 -9.9688597
15.360603 214.80534 -9.9716558
15.378806 214.79752 -9.9715147
15.441346 214.78745 -9.9764338
15.457903 214.79358 -9.9711246
15.47515 214.80367 -9.9738073
15.501911 214.79967 -9.9769001
15.352139 214.82408 -9.9729862
15.368153 214.81882 -9.9814711
15.487559 214.8228 -9.9754963
15.337264 214.84 -9.9760876
15.345702 214.85156 -9.9686899
15.487495 214.84914 -9.9738035
15.502302 214.84911 -9.9702759
15.332294 214.87096 -9.977541
15.349272 214.8815 -9.9729042
15.464396 214.87518 -9.9752941
15.503092 214.87941 -9.9825029
15.354528 214.89787 -9.9658737
15.377562 214.90921 -9.9702444
15.407005 214.91469 -9.9753799
15.424847 214.91476 -9.9742537
15.455549 214.9064 -9.969368
15.478639 214.89667 -9.9733067
15.4299 214.92197 -9.9744425
15.444905 214.94176 -9.9619179
15.479431 214.9382 -9.9742765
15.482395 214.96466 -9.9817905
15.532955 214.96506 -9.9630079
15.55724 214.96298 -9.9612827
15.51411 214.98099 -9.9732733
15.533648 214.97957 -9.9707432
15.554843 214.97469 -9.9626837
15.489848 215.01363 -9.9742575
15.504076 215.00711 -9.9754534
15.522873 215.00119 -9.9775867
15.426117 215.04344 -9.9752398
15.464678 215.04358 -9.9744692
15.481372 215.03186 -9.9726381
15.503242 215.03 -9.9741163
15.411144 215.05797 -9.9632521
15.432704 215.06192 -9.9759846
15.455641 215.06058 -9.9755526
15.478428 215.05623 -9.9813786
15.413174 215.09184 -9.9686871
15.430328 215.08403 -9.9725027
15.452349 215.08159 -9.9755011
15.386377 215.11746 -9.9791746
15.407063 215.10988 -9.9645729
15.428423 215.10751 -9.9636478
15.450048 215.10168 -9.9617453
15.37113 215.17696 -9.9609261
13.446125 216.52246 -9.9839573
13.534462 216.52643 -9.9613113
13.481524 216.54578 -9.9613419
13.504542 216.54318 -9.9617071
13.528505 216.53616 -9.9629498
13.554075 216.53685 -9.9613895
13.64144 216.53107 -9.9639835
13.656367 216.53644 -9.9722385
13.614086 216.56744 -9.9659157
13.63777 216.56818 -9.9668427
13.637758 216.5947 -9.9651661
13.65015 216.60532 -9.9606667
13.615952 216.62199 -9.9754381
13.632791 216.61513 -9.9697266
13.595398 216.66875 -9.9687824
13.604002 216.6815 -9.9837837
13.384369 216.95493 -9.9741096
13.397078 216.95724 -9.973793
13.374526 216.98006 -9.9667225
13.351206 216.99892 -9.964201
13.373899 216.99605 -9.9620323
15.236252 214.39456 -9.9512711
15.228198 214.41415 -9.9371033
15.250202 214.41321 -9.94277
15.26885 214.41512 -9.9458761
15.231791 214.43523 -9.9444981
15.244055 214.43262 -9.9457808
15.278243 214.42868 -9.9468327
15.246184 214.45848 -9.9500341
15.292193 214.45345 -9.9524193
15.267023 214.47766 -9.9405022
15.382583 214.77884 -9.9450636
15.450333 214.78261 -9.9386292
15.35817 214.80406 -9.942215
15.376848 214.79752 -9.9471102
15.435347 214.78757 -9.9445229
15.459173 214.79276 -9.9476414
15.475195 214.80646 -9.9515333
15.348249 214.82489 -9.9457207
15.442999 214.8148 -9.932518
15.483449 214.82437 -9.948349
15.334503 214.85637 -9.951087
15.485808 214.85039 -9.9436102
15.337718 214.8725 -9.9443169
15.441806 214.88602 -9.9383602
15.468568 214.88091 -9.9333992
15.481764 214.87688 -9.9441853
15.496799 214.87517 -9.9476528
15.357862 214.90178 -9.9433441
15.375677 214.90881 -9.9462509
15.460092 214.90047 -9.9423037
15.47998 214.90088 -9.9450808
15.384686 214.91907 -9.9404469
15.402913 214.91986 -9.9447241
15.426364 214.92171 -9.946147
15.447918 214.92422 -9.9410477
15.436543 214.94536 -9.9524326
15.567362 214.9639 -9.9469442
15.574982 214.96535 -9.945509
15.543591 214.97113 -9.9496698
15.568241 214.97188 -9.9529114
15.576387 214.97293 -9.9505005
15.49356 215.01212 -9.9489441
15.504364 215.01175 -9.955142
15.451326 215.02692 -9.9528198
15.482887 215.03015 -9.9535236
15.504799 215.0296 -9.9516516
15.409558 215.0645 -9.9455624
15.436705 215.06003 -9.9487877
15.447338 215.06903 -9.9477749
15.471565 215.0592 -9.9549122
15.407127 215.09378 -9.9480219
15.429454 215.08813 -9.9520721
15.459221 215.08069 -9.9478025
15.387675 215.11389 -9.9472704
15.405345 215.11392 -9.9489346
15.364351 215.1463 -9.9345942
15.383003 215.13847 -9.9431219
15.404679 215.13705 -9.9473476
15.425264 215.13568 -9.9450493
15.365515 215.17123 -9.9458723
15.381559 215.1657 -9.937233
15.399193 215.15802 -9.9411001
15.418375 215.15498 -9.9369125
15.359135 215.18439 -9.9348946
15.395006 215.17836 -9.9344101
15.351406 215.21432 -9.9441204
13.690735 216.4996 -9.9448156
13.515961 216.52679 -9.9571257
13.562839 216.52728 -9.9419746
13.581778 216.52286 -9.9362469
13.611522 216.52538 -9.944788
13.462348 216.54694 -9.9424324
13.482292 216.54524 -9.9484167
13.533584 216.53967 -9.950243
13.559796 216.53796 -9.9453344
13.586662 216.5354 -9.9435787
13.610459 216.53612 -9.9434853
13.630698 216.53702 -9.9366703
13.662335 216.54021 -9.9406023
13.683967 216.54578 -9.9360218
13.407171 216.56436 -9.9447823
13.433349 216.56194 -9.9398556
13.455112 216.56259 -9.9408283
13.479148 216.55743 -9.9477425
13.649344 216.56668 -9.9530716
13.681643 216.56516 -9.9367638
13.648087 216.58943 -9.9528809
13.656978 216.58957 -9.948967
13.653511 216.61366 -9.9329929
13.35778 216.9938 -9.9489956
13.37739 216.98418 -9.9544048
13.355579 217.00494 -9.9434118
13.372423 216.99924 -9.9490223
15.249431 214.39178 -9.9060144
15.274899 214.39531 -9.9172373
15.228554 214.4099 -9.9160004
15.270677 214.41501 -9.9176884
15.196651 214.44261 -9.9114904
15.225135 214.43437 -9.9184017
15.244797 214.44186 -9.9158134
15.28013 214.42905 -9.9207954
15.295205 214.43808 -9.9283066
15.234398 214.44928 -9.9256449
15.247649 214.4539 -9.924366
15.275222 214.45648 -9.9266415
15.363143 214.7821 -9.9107132
15.404357 214.77544 -9.9185781
15.430882 214.77974 -9.9190197
15.354889 214.80054 -9.9192476
15.378506 214.79254 -9.9188032
15.439867 214.78773 -9.9126081
15.460364 214.7959 -9.9213915
15.47464 214.8042 -9.9207983
15.498749 214.80846 -9.9107761
15.335623 214.82721 -9.9200306
15.343726 214.82205 -9.9235983
15.478068 214.82214 -9.9185295
15.330384 214.8558 -9.9197769
15.484759 214.84846 -9.9164028
15.332858 214.87498 -9.9197302
15.345511 214.88042 -9.9227657
15.410736 214.87933 -9.9104424
15.465797 214.88339 -9.9201193
15.479924 214.87212 -9.9138861
15.357516 214.90765 -9.9221916
15.40673 214.9088 -9.9141102
15.434366 214.90781 -9.91817
15.458882 214.90285 -9.9161806
15.381823 214.92099 -9.9163771
15.405755 214.92436 -9.920228
15.435463 214.92577 -9.9233475
15.383075 215.11295 -9.9215546
15.406065 215.11292 -9.9295483
15.361248 215.13885 -9.9301529
15.376898 215.13646 -9.9232349
15.404394 215.14249 -9.9270086
15.358457 215.1626 -9.9193811
15.37656 215.16539 -9.925271
15.404213 215.16721 -9.9274092
15.339038 215.19308 -9.9202166
15.35813 215.19183 -9.9170723
15.376004 215.1881 -9.9223757
15.394797 215.18588 -9.9208164
15.354571 215.21533 -9.9126472
15.377436 215.21153 -9.915863
15.350653 215.23969 -9.9124737
15.371889 215.22873 -9.9080687
15.363392 215.28993 -9.9086418
13.717017 216.47339 -9.9172497
13.69698 216.49936 -9.918663
13.552734 216.52715 -9.9131155
13.618537 216.52686 -9.9301872
13.637207 216.52213 -9.9225502
13.694536 216.51477 -9.9169455
13.708529 216.51164 -9.9112968
13.34606 216.54846 -9.906189
13.384303 216.55394 -9.9077215
13.467453 216.54881 -9.9277182
13.606764 216.5287 -9.9319687
13.637926 216.53506 -9.9299841
13.66427 216.53731 -9.9248228
13.687967 216.53807 -9.9276533
13.702415 216.53436 -9.9196835
13.385612 216.56142 -9.90627
13.448787 216.5625 -9.9253054
13.674496 216.55737 -9.9318686
13.678911 216.56296 -9.9298439
13.641148 216.61548 -9.9296474
13.362597 216.99388 -9.9285374
13.369274 216.98781 -9.9316463
13.352671 217.0072 -9.9171019
15.243404 214.39108 -9.8890638
15.206038 214.41342 -9.8932915
15.24736 214.39966 -9.8928509
15.270351 214.40927 -9.8962622
15.199226 214.43765 -9.8946142
15.222589 214.43633 -9.8957272
15.247174 214.43942 -9.8950377
15.274 214.43646 -9.8967657
15.293144 214.43645 -9.8960781
15.175398 214.46564 -9.8883724
15.195134 214.45618 -9.8884077
15.221462 214.45004 -9.8974762
15.193813 214.4752 -9.8822212
15.3923 214.75601 -9.8857861
15.420037 214.75165 -9.8880997
15.359191 214.78207 -9.8902998
15.379707 214.77637 -9.8939886
15.429026 214.77481 -9.8928957
15.448366 214.78552 -9.8906822
15.334593 214.80579 -9.8957033
15.351512 214.79716 -9.8947916
15.375553 214.79045 -9.8950958
15.457844 214.79735 -9.8928041
15.466398 214.82681 -9.890007
15.334996 214.84985 -9.8931694
15.469681 214.85898 -9.9048824
15.331639 214.87511 -9.894453
15.341035 214.87903 -9.8965302
15.437941 214.86783 -9.8910313
15.462843 214.88103 -9.8921833
15.338564 214.89258 -9.9000206
15.353801 214.90282 -9.8934984
15.373878 214.91362 -9.8982897
15.442074 214.90298 -9.8801212
15.458807 214.90096 -9.8908472
15.357768 214.92036 -9.8812485
15.379473 214.92281 -9.8945904
15.402988 214.92892 -9.8963394
15.427745 214.92392 -9.8928127
15.444918 214.9183 -9.9018021
15.38891 214.94705 -9.8918362
15.359903 215.16696 -9.8945198
15.333028 215.19708 -9.9035969
15.352655 215.18619 -9.9012032
15.373986 215.19781 -9.9017706
15.330894 215.21472 -9.8963823
15.353089 215.21754 -9.8984003
15.37257 215.22284 -9.8944864
15.311141 215.24161 -9.8818235
15.326656 215.24019 -9.8903627
15.351053 215.23959 -9.8969889
15.369946 215.2435 -9.8920517
15.310522 215.2695 -9.8807755
15.332716 215.25847 -9.8881292
15.354548 215.26614 -9.8926678
15.36931 215.27654 -9.8937473
15.362404 215.28519 -9.8937588
15.377298 215.2917 -9.8928423
15.4007 215.28091 -9.8853416
15.360502 215.30869 -9.8803835
15.37982 215.31119 -9.8819008
13.762809 216.40509 -9.8817158
13.741257 216.44933 -9.8856907
13.735554 216.46796 -9.8856249
13.698611 216.4971 -9.9042797
13.715014 216.48807 -9.8966951
13.736366 216.48039 -9.8895435
13.714172 216.50751 -9.9014502
13.358432 216.56029 -9.883213
13.379267 216.56526 -9.8920679
13.402496 216.56647 -9.8988924
13.358774 217.0105 -9.8961535
14.464622 217.07396 -9.8807163
14.432515 217.08115 -9.8872795
14.40296 217.10251 -9.8959312
15.202085 214.38684 -9.8627119
15.243652 214.38493 -9.8673429
15.263073 214.3912 -9.874033
15.203995 214.40002 -9.8637447
15.222754 214.40878 -9.8694067
15.266356 214.40862 -9.8681965
15.206688 214.44743 -9.8717632
15.215384 214.42297 -9.8651466
15.17312 214.46834 -9.8749695
15.189433 214.46609 -9.8763037
15.126329 214.49893 -9.8776188
15.1567 214.4958 -9.8710384
15.17138 214.48764 -9.867939
15.188633 214.48239 -9.8712044
15.159879 214.50195 -9.8563499
15.420386 214.75505 -9.8621492
15.357591 214.78223 -9.8655939
15.37876 214.77568 -9.8678446
15.430876 214.78003 -9.8661995
15.333712 214.80322 -9.8594046
15.350341 214.7993 -9.8659182
15.377603 214.79044 -9.8653479
15.439779 214.78981 -9.8699245
15.454664 214.79955 -9.866189
15.3284 214.82571 -9.8644409
15.464212 214.82681 -9.8614073
15.473454 214.83749 -9.8551121
15.328666 214.85443 -9.8688469
15.464157 214.85228 -9.8645849
15.329689 214.87921 -9.8694859
15.34284 214.87762 -9.8670425
15.428108 214.87384 -9.8763618
15.457975 214.87608 -9.8605776
15.479378 214.87007 -9.8772621
15.339563 214.89154 -9.8698692
15.403715 214.90616 -9.8753548
15.429835 214.91209 -9.8683577
15.458852 214.89919 -9.8655624
15.471989 214.89392 -9.8780184
15.379398 214.91946 -9.8678732
15.405091 214.92303 -9.8628273
15.430781 214.91766 -9.8685284
15.449617 214.9184 -9.8752899
15.36731 215.22287 -9.8767586
15.309183 215.25008 -9.8680668
15.323488 215.24423 -9.8701782
15.307714 215.26709 -9.8679533
15.327597 215.26923 -9.8717785
15.347289 215.26236 -9.8717613
15.307409 215.29509 -9.8600683
15.32503 215.29182 -9.8626585
15.37406 215.30153 -9.866848
15.312286 215.31055 -9.8569155
15.321543 215.31146 -9.8636742
15.384058 215.31219 -9.8766632
15.419292 215.32852 -9.8632622
15.36865 215.33508 -9.8682394
15.418965 215.33751 -9.8786764
15.262335 215.37683 -9.8594742
13.767009 216.35204 -9.8739853
13.780317 216.37469 -9.8749008
13.756344 216.41382 -9.8697958
13.746458 216.43758 -9.8642263
13.759201 216.44157 -9.8595362
13.743007 216.4572 -9.8731747
13.731945 216.48621 -9.8722715
13.328823 216.57883 -9.8724327
13.354038 216.56346 -9.8655033
13.374813 216.56708 -9.8706512
14.495471 217.04485 -9.8709011
14.449755 217.06174 -9.8717346
14.484974 217.07074 -9.855093
14.408611 217.11002 -9.871665
15.223662 214.36401 -9.8358068
15.173147 214.37219 -9.8393307
15.223636 214.37872 -9.8424149
15.244254 214.38666 -9.8401604
15.202001 214.40878 -9.8392076
15.214912 214.41214 -9.8466635
15.160875 214.49323 -9.8513756
15.148304 214.51717 -9.8419542
15.161799 214.51361 -9.8444767
15.128345 214.53445 -9.8354149
15.137877 214.53227 -9.8313818
15.427811 214.78047 -9.839366
15.330795 214.80881 -9.8410091
15.379397 214.78839 -9.8349314
15.440462 214.7907 -9.8432026
15.306917 214.82558 -9.8314743
15.329437 214.82426 -9.8430376
15.342902 214.81689 -9.8373699
15.325873 214.85161 -9.8408346
15.434955 214.85855 -9.8469658
15.459137 214.85326 -9.8388996
15.332141 214.87932 -9.8448391
15.342345 214.88844 -9.8506479
15.453408 214.87669 -9.8399076
15.337698 214.8969 -9.8384218
15.377208 214.91437 -9.8448486
15.406828 214.90849 -9.8385668
15.432789 214.90491 -9.8399944
15.452923 214.89688 -9.8438816
15.323739 215.24435 -9.8474693
15.352676 215.23947 -9.8519888
15.303727 215.26865 -9.8490915
15.32765 215.26736 -9.8499012
15.345013 215.27441 -9.851634
15.302902 215.29735 -9.8476753
15.322489 215.29778 -9.8403654
15.342445 215.30014 -9.846508
15.281589 215.32083 -9.8368263
15.300576 215.32036 -9.8388243
15.323598 215.31868 -9.8393936
15.283435 215.33672 -9.8371544
15.304838 215.34673 -9.8340158
15.321192 215.33627 -9.8344917
15.271214 215.37733 -9.8390675
15.254775 215.38943 -9.8323994
15.274445 215.40323 -9.8342896
13.790207 216.36559 -9.8527365
13.793839 216.3855 -9.836441
13.770487 216.41069 -9.8401365
13.78497 216.40648 -9.8298092
13.770239 216.42883 -9.8464546
13.335808 216.55309 -9.8535748
13.342333 216.55231 -9.8437405
13.32917 216.55678 -9.8526611
13.351676 216.55923 -9.8447332
14.551527 217.00089 -9.8284264
14.550029 217.04213 -9.8391132
14.493072 217.06998 -9.8411283
14.514209 217.07343 -9.8340893
14.447599 217.09422 -9.8380032
14.469193 217.08629 -9.8377523
14.491556 217.07964 -9.8373432
14.54055 217.07829 -9.8330765
14.411968 217.11942 -9.8427925
14.444168 217.10321 -9.8431988
14.53487 217.12206 -9.8318739
14.534607 217.14424 -9.8308554
14.528362 217.15723 -9.8317871
14.534365 217.16263 -9.8426266
14.514643 217.18201 -9.8474731
14.519487 217.21191 -9.8351479
15.176041 214.36627 -9.8092518
15.220668 214.36189 -9.8140268
15.183664 214.38612 -9.8194609
15.194824 214.3837 -9.8135185
15.2318 214.37793 -9.8167973
15.246933 214.38112 -9.8164206
15.192911 214.40263 -9.8177013
15.243548 214.40959 -9.8149204
15.159073 214.5206 -9.8273907
15.128897 214.54944 -9.8153906
15.134779 214.54327 -9.8197422
15.121752 214.56041 -9.8089361
15.392906 214.75943 -9.8244724
15.357619 214.77902 -9.8130341
15.381546 214.77425 -9.8128099
15.427781 214.77899 -9.8138638
15.33526 214.80049 -9.8159523
15.348581 214.7928 -9.8167019
15.437749 214.79117 -9.8111372
15.45505 214.82431 -9.8140039
15.47767 214.82359 -9.811573
15.309101 214.85431 -9.8095789
15.320654 214.85675 -9.8130426
15.413727 214.85202 -9.8081493
15.435474 214.8551 -9.8050175
15.32653 214.87642 -9.8122549
15.405775 214.87964 -9.8129683
15.452626 214.87437 -9.8157778
15.337812 214.89813 -9.811039
15.379166 214.91081 -9.8145971
15.409516 214.91188 -9.8133154
15.433727 214.90147 -9.8160973
15.447873 214.90048 -9.809845
15.37734 214.92114 -9.8152609
15.406906 214.91809 -9.8109989
15.29798 215.29184 -9.8189421
15.277375 215.32266 -9.8168707
15.305106 215.32011 -9.8216238
15.337646 215.31229 -9.8144655
15.261331 215.35777 -9.8064241
15.277806 215.34785 -9.8188505
15.296933 215.34464 -9.8170557
15.316928 215.34442 -9.8198471
15.256939 215.36609 -9.8096476
15.274669 215.37108 -9.8101463
15.299029 215.36751 -9.8122139
15.249617 215.39732 -9.8122568
15.234428 215.4529 -9.8205595
15.24331 215.44168 -9.8150988
15.231514 215.46794 -9.8085375
13.823489 216.33649 -9.8111229
13.799182 216.36388 -9.8127718
13.813222 216.36475 -9.8038759
13.772274 216.38954 -9.827013
13.794234 216.38359 -9.8177519
13.789295 216.40189 -9.8218269
14.575953 216.91473 -9.807539
14.586226 216.91058 -9.8048353
14.568398 216.92943 -9.8109884
14.556966 216.9603 -9.815917
14.567705 216.95256 -9.8086433
14.551193 216.98508 -9.8165092
14.56463 216.98904 -9.812542
14.550215 217.01176 -9.8175468
14.547424 217.03687 -9.8143463
14.560129 217.02321 -9.8082352
14.5268 217.07025 -9.8209991
14.544529 217.06255 -9.8210564
14.451697 217.09621 -9.8279552
14.472469 217.09274 -9.8136473
14.491173 217.08772 -9.8142719
14.523425 217.08566 -9.8165398
14.541288 217.08969 -9.817111
14.462716 217.10059 -9.8201342
14.525991 217.11006 -9.8201771
14.536903 217.11426 -9.8208332
14.528086 217.14081 -9.8169794
14.539946 217.13176 -9.8113251
14.528191 217.16791 -9.8073044
14.536744 217.15596 -9.8096046
14.5214 217.18881 -9.8101501
14.509119 217.22202 -9.8025913
14.484018 217.30161 -9.8032837
15.178545 214.35912 -9.7869158
15.196084 214.35303 -9.787076
15.21907 214.36229 -9.7950163
15.180513 214.38243 -9.7867155
15.193896 214.3847 -9.7957554
15.227198 214.38437 -9.7917576
15.239287 214.38214 -9.8005981
15.188064 214.40067 -9.7921696
15.23976 214.4024 -9.7953644
15.104327 214.57687 -9.7928238
15.115164 214.56931 -9.7931023
15.137701 214.55777 -9.792922
15.10427 214.58092 -9.7822533
15.114939 214.58577 -9.7866402
15.352801 214.78123 -9.790555
15.407129 214.77716 -9.7895699
15.332156 214.80038 -9.7876301
15.343098 214.79776 -9.7938271
15.43439 214.7952 -9.7897816
15.449219 214.8053 -9.7860785
15.306867 214.82338 -9.7893429
15.325926 214.82437 -9.7915897
15.451769 214.82132 -9.7871342
15.322103 214.88054 -9.7867813
15.383873 214.8797 -9.7824669
15.43627 214.88095 -9.784749
15.453992 214.87535 -9.7895927
15.33282 214.8931 -9.7892847
15.378226 214.91002 -9.7844639
15.428978 214.90276 -9.791255
15.445967 214.89067 -9.7845144
15.273804 215.34262 -9.7963877
15.297374 215.35406 -9.7955875
15.254929 215.375 -9.7873774
15.279624 215.37263 -9.793232
15.298452 215.36714 -9.7919168
15.233185 215.39928 -9.788579
15.251809 215.39853 -9.7921028
15.273912 215.39833 -9.7905025
15.291475 215.39006 -9.7923393
15.234471 215.42058 -9.77808
15.249297 215.42302 -9.785017
15.272778 215.4203 -9.7879267
15.227916 215.44913 -9.7822866
15.249839 215.4437 -9.7822609
15.267929 215.44127 -9.7793684
15.224067 215.48495 -9.7833462
14.446102 216.0069 -9.7912407
13.823383 216.33516 -9.7855768
13.834105 216.33987 -9.7762241
13.80348 216.35988 -9.7984905
13.83623 216.34851 -9.7794743
14.597319 216.73178 -9.7793579
14.576157 216.8157 -9.7864799
14.579947 216.85788 -9.782793
14.576715 216.87926 -9.7877808
14.578947 216.90465 -9.785533
14.587397 216.90579 -9.7867737
14.573581 216.93146 -9.7901192
14.594966 216.92883 -9.7943678
14.545975 216.96037 -9.7950325
14.568651 216.95274 -9.7916088
14.567613 216.98077 -9.792923
14.568357 217.01913 -9.7885284
14.523174 217.0737 -9.7998981
14.555258 217.06917 -9.7985497
14.429363 217.12837 -9.7870693
14.539977 217.12654 -9.7989807
14.5221 217.19041 -9.7991228
14.507543 217.22212 -9.788168
14.517942 217.21535 -9.790802
14.505645 217.24544 -9.7826519
14.516644 217.24026 -9.787467
14.504741 217.26379 -9.7779732
14.515482 217.26331 -9.7797508
14.501666 217.30191 -9.7810078
14.487259 217.34525 -9.7791729
14.495197 217.36145 -9.7834301
15.148056 214.33621 -9.7620869
15.173538 214.33762 -9.7626495
15.199748 214.34923 -9.761981
15.218872 214.35811 -9.7681217
15.173719 214.37875 -9.7630529
15.224053 214.38074 -9.7645454
15.100341 214.59448 -9.7660265
15.111331 214.59581 -9.7726364
15.101049 214.62309 -9.7534599
15.363461 214.75302 -9.7734413
15.354218 214.77635 -9.7638044
15.381126 214.77043 -9.7620363
15.426619 214.78323 -9.7596312
15.329189 214.79732 -9.7600164
15.341077 214.79135 -9.7704706
15.433446 214.79485 -9.7648745
15.305645 214.82703 -9.7598886
15.324222 214.82526 -9.7676592
15.438571 214.82449 -9.7662382
15.450741 214.82658 -9.7582922
15.397408 214.85989 -9.7558422
15.443054 214.85478 -9.7601509
15.450606 214.85301 -9.7630644
15.470928 214.85651 -9.7725792
15.397334 214.88287 -9.7608376
15.438422 214.87889 -9.7663422
15.452261 214.87097 -9.7578621
15.333697 214.89951 -9.7630806
15.358689 214.90518 -9.7637911
15.375175 214.9084 -9.7597837
15.427505 214.89938 -9.7646255
15.229064 215.40982 -9.7721863
15.248535 215.39983 -9.7670622
15.285469 215.39783 -9.7534561
15.22906 215.42703 -9.7653284
15.251227 215.42673 -9.7656832
15.264111 215.41815 -9.7723894
15.207929 215.45699 -9.7578611
15.224226 215.44824 -9.7665997
15.244347 215.44887 -9.7667971
15.269741 215.44608 -9.769886
15.207418 215.47781 -9.7550211
15.223804 215.47559 -9.7587042
15.248456 215.47119 -9.7609253
15.263639 215.46359 -9.7627087
15.203621 215.4993 -9.7630463
15.222374 215.49356 -9.7542915
15.240175 215.50569 -9.7515326
15.207424 215.53772 -9.7600269
15.21654 215.52133 -9.7634077
15.18987 215.55295 -9.7624187
15.194366 215.5703 -9.7659893
15.157784 215.59949 -9.7544804
14.540314 215.9498 -9.7523823
14.567749 215.95398 -9.7643909
14.527021 215.97311 -9.7609167
14.457195 216.0005 -9.7505913
14.484497 215.98907 -9.7569981
14.51814 215.99231 -9.7509251
14.535648 215.98268 -9.7566833
14.169733 216.16226 -9.7586021
14.186316 216.15692 -9.7621574
14.219074 216.14417 -9.7594776
14.145342 216.16557 -9.7649498
13.875668 216.24133 -9.7732544
13.845057 216.31339 -9.7576818
13.828531 216.33411 -9.7706547
13.82325 216.35136 -9.7700253
14.602242 216.72575 -9.7553978
14.600127 216.758 -9.7531147
14.596249 216.77789 -9.7596941
14.583828 216.80527 -9.7667274
14.597414 216.80269 -9.7576246
14.583588 216.82825 -9.7723236
14.593795 216.82715 -9.7634096
14.582664 216.85532 -9.764267
14.592544 216.85484 -9.7656555
14.585608 216.88206 -9.7718124
14.590191 216.8764 -9.7716255
14.515556 217.25113 -9.7724476
14.499041 217.2775 -9.7722797
14.511801 217.27353 -9.7703352
14.497354 217.29378 -9.7651415
14.494662 217.321 -9.7559519
14.488033 217.34372 -9.7552376
15.125066 214.32898 -9.737154
15.147781 214.33072 -9.732935
15.168575 214.33025 -9.736721
15.19151 214.33246 -9.740201
15.152643 214.3548 -9.7360573
15.161079 214.35783 -9.7370501
15.204761 214.35349 -9.7352018
15.218475 214.35706 -9.7380695
15.162539 214.37448 -9.7373981
15.216512 214.37714 -9.7360401
15.086633 214.61848 -9.7417812
15.12056 214.60989 -9.7355156
15.076263 214.63506 -9.7298794
15.096806 214.63589 -9.7374992
15.336448 214.78384 -9.7301369
15.380523 214.76952 -9.7342978
15.435061 214.80037 -9.7357674
15.444553 214.80952 -9.7342939
15.304317 214.82455 -9.7453213
15.441068 214.82442 -9.7309723
15.44941 214.82742 -9.7384911
15.306385 214.85838 -9.7448215
15.408634 214.84055 -9.7432518
15.440402 214.85457 -9.7383041
15.450239 214.84831 -9.7399073
15.310318 214.87265 -9.7390995
15.325182 214.87915 -9.7344837
15.430131 214.88017 -9.7364445
15.449557 214.87469 -9.7426624
15.332295 214.9017 -9.7432528
15.38227 214.90982 -9.7386723
15.405935 214.90517 -9.7367249
15.428244 214.8958 -9.7391014
15.374654 214.91904 -9.7376328
15.292654 215.40628 -9.7456932
15.227775 215.43417 -9.7437344
15.238988 215.41853 -9.7444534
15.267139 215.42917 -9.7462034
15.225268 215.44977 -9.7450438
15.248984 215.4561 -9.7442045
15.200762 215.47945 -9.7493629
15.22406 215.47623 -9.7412844
15.244495 215.4736 -9.7379856
15.201332 215.50304 -9.7384253
15.199539 215.52995 -9.7337132
15.221923 215.52602 -9.7354622
15.241245 215.51692 -9.7300968
15.178632 215.55481 -9.7283373
15.198771 215.55046 -9.7294254
15.217627 215.54684 -9.7380867
15.176308 215.5782 -9.7278872
15.185875 215.57127 -9.7296925
15.15366 215.59236 -9.7249823
15.159386 215.60783 -9.7493954
15.128903 215.65688 -9.7349396
14.739624 215.8968 -9.7252159
14.531635 215.97864 -9.7461815
14.538157 215.98 -9.7301693
14.571421 215.96609 -9.733181
14.433937 216.03506 -9.7317677
14.757158 216.05655 -9.7326336
14.775065 216.05893 -9.7278624
14.38825 216.07167 -9.736208
14.776085 216.06621 -9.730896
14.312868 216.10007 -9.7274609
14.254787 216.1123 -9.7261934
14.284358 216.11816 -9.7260761
14.135942 216.16043 -9.7468243
14.200043 216.15762 -9.7254982
14.237003 216.14604 -9.7269888
14.257662 216.1458 -9.7277412
14.187014 216.16891 -9.7417564
14.20816 216.16458 -9.7420959
14.191678 216.20825 -9.7389431
13.898502 216.24539 -9.7362003
13.869123 216.2883 -9.7272434
14.746094 216.28502 -9.7278099
13.852329 216.30576 -9.7372561
13.865448 216.30394 -9.7323265
14.752617 216.29921 -9.729517
13.859215 216.32097 -9.7487421
14.707425 216.3714 -9.7287979
14.719276 216.35806 -9.7404785
14.623882 216.61298 -9.7286272
14.610808 216.64812 -9.7302456
14.620387 216.64207 -9.7340784
14.608682 216.67448 -9.739789
14.620549 216.67323 -9.7291536
14.608454 216.70184 -9.7341156
14.620607 216.69928 -9.7332983
14.577217 216.72113 -9.745677
14.60646 216.72069 -9.7356997
14.620704 216.72127 -9.7352705
14.579906 216.75972 -9.7342052
14.613334 216.74887 -9.7407522
14.58013 216.76317 -9.7439804
14.602111 216.77374 -9.741024
14.593626 216.79865 -9.7473993
14.541626 217.23999 -9.7361288
14.507568 217.2812 -9.7401123
14.517473 217.28003 -9.7474079
14.534958 217.26146 -9.7385521
14.510853 217.30502 -9.7449226
14.488237 217.33289 -9.7467194
14.49152 217.3438 -9.7378082
14.490158 217.36591 -9.7317038
15.168277 214.31607 -9.7071953
15.187783 214.31412 -9.7174892
15.116612 214.33154 -9.7048912
15.143512 214.33144 -9.710825
15.170131 214.32803 -9.7126255
15.187818 214.32722 -9.7086935
15.129622 214.34442 -9.7091408
15.170733 214.36331 -9.7144537
15.201655 214.35413 -9.7161608
15.153837 214.37364 -9.7161636
15.179444 214.37669 -9.7217588
15.237366 214.37509 -9.7187595
15.073574 214.61574 -9.7066698
15.097162 214.62262 -9.719677
15.110653 214.62488 -9.7174435
15.070916 214.64754 -9.7088127
15.081791 214.63989 -9.7189054
15.32889 214.77536 -9.7092142
15.379039 214.76973 -9.7139654
15.404092 214.77789 -9.7127962
15.42087 214.78343 -9.6984682
15.325869 214.79532 -9.7126923
15.417081 214.7881 -9.7124252
15.430063 214.79759 -9.7096071
15.309164 214.82205 -9.7110176
15.319658 214.81902 -9.7127552
15.439218 214.82333 -9.7081633
15.450504 214.8228 -9.7128639
15.304773 214.8567 -9.7144852
15.432185 214.85159 -9.7130032
15.451241 214.84746 -9.7082939
15.307293 214.8799 -9.7050648
15.406282 214.88106 -9.7152729
15.431462 214.87801 -9.7094421
15.447741 214.87518 -9.7077026
15.332347 214.89934 -9.7174406
15.378092 214.90865 -9.7102795
15.40177 214.90483 -9.713748
15.21399 215.48094 -9.7210035
15.180504 215.50005 -9.7068653
15.204031 215.4949 -9.721777
15.218032 215.50577 -9.7187347
15.238483 215.50102 -9.7061205
15.192784 215.52696 -9.7148285
15.215764 215.52837 -9.7171659
15.174532 215.55659 -9.7133389
15.196563 215.55521 -9.7155609
15.215889 215.54794 -9.7138577
15.172451 215.58008 -9.7119293
15.192574 215.57661 -9.7117739
15.213959 215.57291 -9.7094307
15.147508 215.60617 -9.7054138
15.168199 215.60489 -9.7053089
15.191679 215.60281 -9.705122
15.146114 215.63156 -9.7007999
15.169507 215.62813 -9.7028971
15.187761 215.62367 -9.6981153
15.131632 215.65347 -9.7145729
15.143465 215.64449 -9.6981678
15.129816 215.67825 -9.7034492
14.739288 215.87399 -9.7043819
14.645508 215.9463 -9.7047272
14.578154 215.97543 -9.6990604
14.59455 215.96817 -9.711565
14.681234 215.96501 -9.6982975
14.491396 216.00574 -9.7120342
14.521687 215.99957 -9.7006617
14.549936 215.99368 -9.6991844
14.682564 216.00076 -9.6985798
14.815468 215.99869 -9.7027531
14.442473 216.02473 -9.7061272
14.4702 216.02403 -9.7050457
14.493419 216.01961 -9.7031956
14.517424 216.01547 -9.7002325
14.376901 216.05229 -9.7051601
14.394074 216.05247 -9.7067566
14.418452 216.04799 -9.7056742
14.442558 216.04498 -9.7074251
14.464468 216.04401 -9.707202
14.489183 216.04111 -9.7019215
14.784546 216.05826 -9.7107296
14.804614 216.05615 -9.700058
14.342483 216.08203 -9.7072191
14.366452 216.07416 -9.7090034
14.388278 216.07256 -9.7089138
14.414509 216.06609 -9.7062502
14.452476 216.06116 -9.718647
14.458042 216.06332 -9.723175
14.764307 216.07599 -9.7223272
14.810421 216.06297 -9.7047596
14.82114 216.06142 -9.6996861
14.290927 216.10429 -9.7076893
14.312888 216.09926 -9.7120724
14.339396 216.09746 -9.7091684
14.362062 216.09218 -9.70821
14.39048 216.08803 -9.7066183
14.762466 216.10152 -9.7025557
14.217473 216.13446 -9.7014799
14.241785 216.13405 -9.7044163
14.262547 216.12952 -9.7125063
14.285076 216.12239 -9.7110977
14.309514 216.1218 -9.7136402
14.330196 216.11427 -9.7136316
14.191265 216.15965 -9.7077866
14.211021 216.15279 -9.7082882
14.234908 216.14989 -9.7092247
14.260468 216.14931 -9.714592
14.281543 216.14073 -9.7114182
14.139414 216.17561 -9.7120447
14.159284 216.17764 -9.7023468
14.182829 216.17589 -9.7039671
14.211003 216.17342 -9.7052259
14.235099 216.16739 -9.7081614
14.106833 216.19798 -9.7036467
14.131289 216.19308 -9.6999931
14.158661 216.19487 -9.6996059
14.194546 216.19211 -9.6984844
14.212709 216.20186 -9.7193489
13.930888 216.23979 -9.7164707
13.998405 216.23595 -9.7121277
13.851837 216.25935 -9.7099266
13.863338 216.24208 -9.6983547
13.894676 216.258 -9.71731
14.193857 216.24451 -9.7112675
14.20211 216.25858 -9.7132587
14.771265 216.25706 -9.700326
13.855415 216.29245 -9.7230711
13.884782 216.28464 -9.70539
13.874152 216.29803 -9.7141714
13.888558 216.29753 -9.7029867
14.188505 216.31499 -9.7067204
14.739497 216.30968 -9.7103519
14.760277 216.30673 -9.6982136
14.707352 216.35287 -9.7207327
14.726001 216.35313 -9.7036896
14.715483 216.37877 -9.6993246
14.682489 216.41525 -9.7071877
14.65782 216.45786 -9.6997223
14.66963 216.45201 -9.7069931
14.65292 216.49677 -9.7010155
14.666449 216.48654 -9.6990681
14.651708 216.51218 -9.7021542
14.633528 216.54498 -9.708807
14.644332 216.54211 -9.702631
14.63389 216.56964 -9.7067423
14.643837 216.56775 -9.7018499
14.629613 216.59203 -9.7099457
14.640711 216.59576 -9.7057676
14.12421 216.61737 -9.6993465
14.628834 216.61678 -9.7124138
14.641205 216.61455 -9.707509
14.627715 216.64473 -9.7174349
14.638311 216.64368 -9.7117434
14.620969 216.66672 -9.7211208
14.606636 216.70815 -9.7197847
14.620262 216.70172 -9.7228441
14.604721 216.72493 -9.7172003
14.612019 216.72943 -9.7156324
14.5847 216.7368 -9.7208719
14.600186 216.746 -9.7054729
14.57559 216.78743 -9.6991425
14.595895 216.76341 -9.698082
14.59407 216.79742 -9.7080479
14.507607 217.32544 -9.7188959
14.508291 217.32935 -9.7239637
14.470369 217.36691 -9.7102966
15.151112 214.28563 -9.6851692
15.121805 214.30978 -9.6783743
15.165915 214.31366 -9.6876774
15.124074 214.32971 -9.6836843
15.136354 214.33403 -9.6877174
15.184019 214.33295 -9.692338
15.143433 214.35094 -9.6853485
15.191864 214.3508 -9.6840172
15.069267 214.65469 -9.6946163
15.06488 214.66556 -9.6846504
15.081478 214.66249 -9.6839361
15.360635 214.75946 -9.6736727
15.332922 214.77982 -9.6765118
15.354365 214.77014 -9.6856899
15.382766 214.77049 -9.6851873
15.405297 214.7778 -9.6890755
15.422136 214.78377 -9.6749439
15.308709 214.79861 -9.6940851
15.322039 214.79414 -9.6864338
15.413082 214.79294 -9.6799831
15.429645 214.8006 -9.6836147
15.306943 214.82256 -9.6882019
15.43757 214.82481 -9.6869678
15.444586 214.83382 -9.6882839
15.294989 214.85518 -9.6735439
15.446433 214.85039 -9.6860542
15.303317 214.87149 -9.6806898
15.316719 214.88495 -9.6919785
15.404147 214.87492 -9.6872435
15.422717 214.88196 -9.685605
15.444229 214.87379 -9.6836967
15.333507 214.90067 -9.6846275
15.352575 214.90665 -9.6885805
15.374015 214.90639 -9.6870146
15.403373 214.89818 -9.6838722
15.367365 214.91904 -9.6847649
15.246002 215.48543 -9.6897173
15.182436 215.56253 -9.6915712
15.196178 215.5463 -9.6854181
15.21262 215.5472 -9.6847305
15.154578 215.58669 -9.6876097
15.165755 215.58357 -9.6859865
15.187666 215.5845 -9.6952953
15.145077 215.61409 -9.6893797
15.174022 215.61163 -9.6902189
15.188745 215.59869 -9.6807194
15.146919 215.63138 -9.6892118
15.16725 215.63176 -9.6865444
15.122032 215.6591 -9.6804628
15.142803 215.65474 -9.6839647
15.169325 215.65347 -9.6804886
15.123303 215.6853 -9.6755972
15.141108 215.68037 -9.6746283
15.079415 215.70062 -9.6801758
15.097122 215.71054 -9.6834345
15.12259 215.70456 -9.683836
15.091305 215.72862 -9.6804514
14.711314 215.83665 -9.6746511
14.723369 215.83865 -9.6765633
14.792076 215.84698 -9.6893158
14.709063 215.85693 -9.675499
14.721134 215.86224 -9.6780787
14.760946 215.85208 -9.6971626
14.782467 215.85841 -9.6833591
14.698128 215.90118 -9.6782932
14.718507 215.89087 -9.6722994
14.813473 215.89331 -9.6769142
14.838596 215.89079 -9.6756296
14.679697 215.91266 -9.6747742
14.574342 215.95221 -9.6739521
14.608078 215.95076 -9.6810732
14.626473 215.94429 -9.6810799
14.649297 215.9438 -9.6777945
14.673937 215.9437 -9.6826801
14.533152 215.98085 -9.6801891
14.547336 215.976 -9.6849518
14.574217 215.97107 -9.6826134
14.597787 215.96921 -9.6821327
14.624435 215.96629 -9.6805773
14.652128 215.96764 -9.6798725
14.666889 215.96857 -9.6789351
14.837364 215.96814 -9.6751385
14.473 215.9989 -9.6915073
14.520716 215.99454 -9.6902943
14.54675 215.99379 -9.6902494
14.662743 215.99115 -9.687583
14.675819 215.99539 -9.6895132
14.838081 215.99498 -9.6744118
14.422022 216.02107 -9.6937408
14.446851 216.02286 -9.6937675
14.493465 216.02086 -9.6923637
14.516647 216.01474 -9.6901999
14.547469 216.0127 -9.6942358
14.683064 216.01765 -9.6910677
14.69471 216.02567 -9.6905155
14.81079 216.01503 -9.6838417
14.372733 216.04926 -9.694705
14.392944 216.04688 -9.6910706
14.413843 216.05115 -9.6950283
14.435648 216.04922 -9.6956358
14.458826 216.03998 -9.6912165
14.702717 216.04729 -9.68577
14.812759 216.05202 -9.6879702
14.833211 216.04657 -9.6796818
14.336565 216.07425 -9.6958885
14.353547 216.06812 -9.6945114
14.397001 216.06596 -9.6918325
14.682301 216.0661 -9.6746082
14.70486 216.06786 -9.6789732
14.818127 216.07582 -9.6777458
14.827249 216.06905 -9.6844206
14.27341 216.10909 -9.6976604
14.280044 216.10616 -9.6976814
14.815562 216.10114 -9.6799583
14.825665 216.10088 -9.6783628
14.237086 216.12958 -9.6960888
14.251341 216.12328 -9.6939087
14.812526 216.12688 -9.6781931
14.823002 216.13371 -9.6766129
14.182414 216.15765 -9.6886148
14.205044 216.14633 -9.6896915
14.232681 216.14336 -9.6915674
14.251542 216.14745 -9.692627
14.279677 216.14418 -9.697504
14.790253 216.15129 -9.6825905
14.80686 216.15092 -9.6790352
14.113017 216.186 -9.6819801
14.133567 216.18182 -9.6884632
14.158887 216.18155 -9.6933241
14.181781 216.1757 -9.6920433
14.207 216.17999 -9.6918354
14.222599 216.18723 -9.6976471
14.789223 216.17847 -9.6842394
14.801023 216.17749 -9.6801224
13.928205 216.20486 -9.693573
14.057483 216.20927 -9.6784401
14.082067 216.20819 -9.682766
14.104471 216.20374 -9.6867952
14.128499 216.19673 -9.6929197
14.147183 216.19794 -9.6961994
14.191183 216.20239 -9.681282
14.207478 216.20363 -9.6776657
14.225639 216.202 -9.6790504
14.787992 216.20418 -9.6813936
14.797812 216.20012 -9.688942
13.901184 216.22667 -9.6866732
13.927295 216.22823 -9.6721287
13.976236 216.24026 -9.6774168
14.028025 216.23169 -9.6784286
14.053443 216.2278 -9.6809721
14.075224 216.22266 -9.6853943
14.10161 216.21954 -9.6900253
14.213709 216.21939 -9.6758318
14.782917 216.22971 -9.6814651
14.795263 216.21921 -9.6896324
13.840943 216.26437 -9.6835213
13.872351 216.26044 -9.6785917
13.893551 216.25977 -9.6813183
13.947931 216.25395 -9.677042
13.973217 216.25258 -9.6784105
14.001143 216.25015 -9.6762896
14.028788 216.2482 -9.6795502
14.195587 216.24532 -9.6868877
14.761581 216.26006 -9.6869411
14.77789 216.25142 -9.6844988
13.764929 216.28064 -9.6816082
13.792344 216.29028 -9.674654
13.822481 216.27905 -9.6738186
13.841581 216.2733 -9.6747894
13.874411 216.27679 -9.688426
13.893028 216.27797 -9.6836767
13.988785 216.26909 -9.6747208
14.190997 216.28412 -9.6845436
14.758498 216.28027 -9.6864395
14.775023 216.27393 -9.6803093
13.876953 216.30069 -9.6861229
14.181924 216.3127 -9.6959858
14.736731 216.31194 -9.6826792
14.753356 216.30681 -9.6845818
14.771236 216.29518 -9.6821899
14.733496 216.33707 -9.6870308
14.748258 216.32693 -9.686655
14.710564 216.36874 -9.6902561
14.725929 216.35489 -9.6878433
14.186342 216.39125 -9.6758461
14.196194 216.39032 -9.6866093
14.7067 216.38689 -9.6907568
14.716146 216.37918 -9.6929951
14.762083 216.3913 -9.6799698
14.183975 216.41068 -9.678031
14.685004 216.41431 -9.6928883
14.700879 216.40497 -9.6920452
14.156056 216.42989 -9.6779041
14.173244 216.43312 -9.672967
14.661004 216.43497 -9.6890049
14.676028 216.43947 -9.6915836
14.693216 216.43289 -9.6906395
14.656361 216.46793 -9.6905603
14.673793 216.4624 -9.6919174
14.691837 216.45416 -9.6955872
14.657548 216.49226 -9.6897259
14.669547 216.48259 -9.6940336
14.652156 216.51619 -9.691638
14.637782 216.53525 -9.691988
14.649358 216.53848 -9.6934967
14.633223 216.56738 -9.6962433
14.643702 216.56348 -9.6955194
14.096098 216.60284 -9.6784172
14.13104 216.60474 -9.6784229
14.627977 216.59241 -9.6977739
14.578253 216.75949 -9.6931229
14.594217 216.75365 -9.6917925
14.581287 216.77655 -9.6759396
14.596128 216.76645 -9.6855602
14.576212 216.79199 -9.6867313
14.007015 216.88483 -9.6832933
14.016157 216.86807 -9.694746
13.988396 216.90564 -9.6758776
14.004655 216.92136 -9.6765213
13.953407 216.9509 -9.6745968
14.513458 217.35583 -9.6902447
14.468681 217.37869 -9.6755095
14.512125 217.37805 -9.6807709
14.501149 217.39256 -9.6840506
15.076221 214.28732 -9.6598148
15.141057 214.28976 -9.652607
15.162746 214.29155 -9.6687651
15.104904 214.30547 -9.6547899
15.117768 214.30229 -9.6563549
15.14506 214.30168 -9.66119
15.164815 214.30933 -9.6629715
15.102356 214.32736 -9.6535873
15.116183 214.33092 -9.6593847
15.134513 214.34102 -9.6544523
15.171082 214.32622 -9.6624889
15.184956 214.33109 -9.663146
15.130292 214.34569 -9.666563
15.060127 214.67363 -9.6638336
15.016754 214.6947 -9.654583
15.0511 214.68768 -9.6641598
15.060522 214.68765 -9.6592197
15.3572 214.75629 -9.6499424
15.373825 214.75447 -9.6582651
15.355695 214.77119 -9.6592741
15.382361 214.76903 -9.6584187
15.405459 214.77898 -9.661665
15.429245 214.78387 -9.6571732
15.305842 214.80721 -9.661725
15.319777 214.78899 -9.6626577
15.391857 214.78664 -9.658123
15.413145 214.78998 -9.6591034
15.427562 214.80411 -9.6652813
15.283503 214.81346 -9.6471682
15.302511 214.82349 -9.6581116
15.402267 214.82407 -9.6680908
15.43476 214.82431 -9.6603947
15.433043 214.85306 -9.6610632
15.302752 214.8781 -9.6599064
15.349041 214.87924 -9.6592388
15.387241 214.86789 -9.653326
15.412319 214.88246 -9.6599226
15.426455 214.87509 -9.6596909
15.312073 214.89761 -9.6490746
15.324943 214.89966 -9.6641169
15.355704 214.90973 -9.6591892
15.402422 214.89743 -9.6571169
15.183862 215.61592 -9.652586
15.128419 215.63861 -9.659461
15.142528 215.62926 -9.6620922
15.172306 215.63301 -9.6578789
15.186897 215.63089 -9.6548347
15.122425 215.65935 -9.6627607
15.142435 215.66081 -9.6642008
15.165215 215.65315 -9.6655045
15.079102 215.69142 -9.6523714
15.098294 215.68599 -9.6579762
15.118801 215.68329 -9.6647663
15.142346 215.67827 -9.6606865
15.075399 215.70651 -9.6518745
15.093569 215.71117 -9.6558113
15.118942 215.70956 -9.6597967
15.137535 215.70634 -9.654912
15.096915 215.73465 -9.6532946
15.116427 215.7305 -9.6531448
15.135115 215.72746 -9.6548004
14.419827 215.75623 -9.6473026
14.470046 215.76886 -9.6500006
14.482184 215.76904 -9.6516027
15.101746 215.75468 -9.6518126
14.473668 215.78105 -9.6467819
14.494117 215.77933 -9.649128
14.520355 215.78235 -9.6511002
14.544521 215.79178 -9.6465855
14.565535 215.81067 -9.6489239
14.708359 215.81468 -9.6686764
14.721731 215.81705 -9.6691303
14.728228 215.83351 -9.668457
14.836884 215.83714 -9.6610651
14.860344 215.83542 -9.6533642
14.724293 215.86929 -9.6655788
14.77503 215.86615 -9.649601
14.85968 215.87337 -9.6477242
14.627412 215.90106 -9.6504383
14.683425 215.90063 -9.6581764
14.706743 215.89404 -9.6600208
14.72757 215.89423 -9.6529541
14.750239 215.89014 -9.6492548
14.79398 215.90149 -9.6505814
14.809166 215.88123 -9.6460228
14.859532 215.892 -9.6526203
14.611229 215.90976 -9.6565895
14.651051 215.92358 -9.6638145
14.680016 215.91698 -9.6623096
14.703005 215.91357 -9.6611748
14.752934 215.90659 -9.6497173
14.814524 215.90752 -9.6590014
14.837372 215.91869 -9.6580963
14.857047 215.91605 -9.655735
14.600355 215.94968 -9.6666298
14.62323 215.94164 -9.6627522
14.650046 215.93971 -9.6676283
14.675208 215.93761 -9.6657085
14.698554 215.93535 -9.6661167
14.85636 215.94135 -9.6604834
14.573818 215.97018 -9.671772
14.601001 215.96642 -9.6713524
14.626846 215.9621 -9.6625586
14.647001 215.96234 -9.6600533
14.670162 215.95842 -9.6709709
14.841285 215.96756 -9.6648874
14.853485 215.96936 -9.6664238
14.59417 215.98383 -9.6719799
14.839708 215.99542 -9.6674242
14.851257 215.99327 -9.6667309
14.837182 216.01793 -9.669055
14.688767 216.05972 -9.6714258
14.821565 216.04971 -9.6695595
14.849102 216.04771 -9.6635618
14.876431 216.04958 -9.6532555
14.689939 216.06926 -9.666317
14.825146 216.07959 -9.6716871
14.236404 216.16248 -9.6669064
14.103412 216.18399 -9.6690187
14.254501 216.18889 -9.6709938
14.791034 216.18895 -9.6692991
14.808066 216.17731 -9.6628475
14.1922 216.215 -9.6698704
13.86632 216.23763 -9.6658401
13.925731 216.24051 -9.6523886
13.953444 216.23871 -9.6599989
13.982126 216.2334 -9.6641884
14.00166 216.23312 -9.6660423
14.024422 216.23119 -9.6663065
14.050873 216.21918 -9.6688805
14.192846 216.23166 -9.661993
14.206308 216.22781 -9.6664467
14.786072 216.23505 -9.6523848
13.820045 216.246 -9.6597824
13.849103 216.26305 -9.6573687
13.874649 216.2623 -9.659915
13.899301 216.25906 -9.6625729
13.945916 216.25462 -9.6680098
14.190104 216.25633 -9.6555815
14.205053 216.25345 -9.6575336
13.724117 216.29156 -9.6496105
13.744254 216.29242 -9.6555595
13.768294 216.28929 -9.6552706
13.794687 216.28677 -9.6543674
13.82204 216.28203 -9.6579266
13.84595 216.27835 -9.6594687
13.869409 216.27534 -9.6625805
13.894696 216.27454 -9.6675177
13.924984 216.27153 -9.6693878
14.185018 216.28117 -9.6517391
14.204664 216.28094 -9.6488504
14.76649 216.28979 -9.6489773
14.775684 216.27759 -9.6704235
13.718395 216.30202 -9.6516409
13.741426 216.30002 -9.6536484
13.769033 216.29999 -9.6509333
13.793737 216.29948 -9.6506786
13.81439 216.29645 -9.6544113
14.185019 216.30908 -9.6522484
14.197836 216.3024 -9.6477613
14.756354 216.30565 -9.6621656
14.768356 216.30553 -9.6495924
14.179354 216.33318 -9.6536293
14.756241 216.33194 -9.6617193
14.772609 216.33261 -9.655798
14.167497 216.36237 -9.671627
14.175684 216.35883 -9.6564484
14.757808 216.35028 -9.6561346
14.775658 216.35661 -9.6575365
14.179532 216.39107 -9.6596365
14.782265 216.38315 -9.6562042
14.181104 216.40201 -9.6596832
14.788048 216.41347 -9.6475983
14.17317 216.44824 -9.6498566
14.163805 216.49023 -9.647254
14.159021 216.50551 -9.65135
14.134911 216.57066 -9.6503162
14.099236 216.60475 -9.6520729
14.135549 216.59308 -9.6499968
14.082655 216.61349 -9.6484222
14.102816 216.62102 -9.6536026
14.12531 216.61821 -9.6526403
14.13848 216.64627 -9.6566792
14.146385 216.6434 -9.6507168
14.112261 216.67082 -9.652318
14.166149 216.67599 -9.6575289
14.10906 216.69383 -9.6591606
14.152256 216.69629 -9.6576815
14.078223 216.73169 -9.6557884
14.163872 216.71909 -9.6479473
14.063541 216.76048 -9.6488514
14.067566 216.7597 -9.6521683
14.075879 216.77307 -9.650362
14.58406 216.77747 -9.6673412
14.595828 216.78426 -9.6643133
14.066169 216.79591 -9.6467285
14.578725 216.7939 -9.6493664
14.593751 216.79462 -9.6541538
14.576675 216.81407 -9.6686077
14.04006 216.87057 -9.6469803
13.998364 216.90482 -9.6589632
13.97493 216.95943 -9.6689091
13.999733 216.95932 -9.6495628
13.986208 216.97072 -9.6503773
14.502007 217.3831 -9.669651
14.517832 217.37558 -9.660656
14.50385 217.39531 -9.6619024
14.511994 217.38947 -9.6547728
15.071901 214.28793 -9.6340714
15.097153 214.28448 -9.6270638
15.116817 214.28548 -9.6348076
15.137155 214.2852 -9.6339064
15.096309 214.30399 -9.6319561
15.111958 214.29723 -9.6311283
15.14945 214.29889 -9.6350756
15.164174 214.30522 -9.630559
15.104613 214.3244 -9.6291561
15.116173 214.33714 -9.6359653
15.14211 214.32953 -9.6382627
15.167305 214.33205 -9.6413879
15.130633 214.34616 -9.6396141
15.026777 214.68707 -9.634388
15.043348 214.70087 -9.6379786
15.05864 214.69653 -9.6310682
15.038561 214.71242 -9.6445827
15.065598 214.71082 -9.6430655
15.358006 214.75061 -9.6241436
15.329142 214.77499 -9.6314707
15.353347 214.76787 -9.6328888
15.404431 214.78004 -9.6317463
15.42374 214.78137 -9.6255865
15.285865 214.81058 -9.630312
15.304244 214.79997 -9.6357851
15.318665 214.79204 -9.6375341
15.409466 214.7935 -9.6282673
15.424939 214.80638 -9.6344595
15.276245 214.81534 -9.6381435
15.301584 214.82617 -9.628849
15.431218 214.82605 -9.6324854
15.389465 214.85562 -9.6312132
15.417088 214.85641 -9.6250162
15.432493 214.85101 -9.6355343
15.281405 214.87413 -9.6275463
15.306166 214.8797 -9.6224976
15.407164 214.87968 -9.6302538
15.427331 214.87248 -9.6315031
15.311984 214.89983 -9.6292677
15.3304 214.90451 -9.6327801
15.355347 214.90707 -9.6357021
15.380372 214.90196 -9.6369772
15.401783 214.89478 -9.6370316
15.176704 215.62985 -9.6367798
15.198936 215.63077 -9.6340456
15.218779 215.63715 -9.627821
15.123036 215.66029 -9.6393614
15.169762 215.64452 -9.6334333
15.228766 215.65047 -9.6256208
15.248857 215.66412 -9.6278954
15.053666 215.688 -9.6332321
15.066546 215.69054 -9.637352
15.092251 215.68187 -9.6354427
15.117897 215.68379 -9.6305342
15.13549 215.68399 -9.6382132
14.991668 215.72186 -9.6218834
15.039166 215.71094 -9.636899
15.064404 215.71323 -9.6390448
15.083208 215.7141 -9.6368856
15.12779 215.70627 -9.6367931
14.968392 215.74193 -9.6286221
14.988922 215.73352 -9.6267624
15.012174 215.73108 -9.6275721
15.060467 215.7247 -9.6395073
15.091711 215.73619 -9.6404295
15.138062 215.72964 -9.6351261
14.422762 215.76968 -9.6321945
14.442484 215.76698 -9.6343813
14.490478 215.76724 -9.6428671
14.520056 215.77109 -9.6383162
14.921019 215.76595 -9.6238804
14.937406 215.76331 -9.6227789
14.985159 215.75186 -9.6247311
14.4231 215.78156 -9.6252003
14.444316 215.78011 -9.6342945
14.523229 215.77844 -9.6416655
14.546196 215.78482 -9.6344023
14.568044 215.79277 -9.6284924
14.588581 215.79178 -9.6221189
14.865459 215.79521 -9.6261978
14.888832 215.79221 -9.6251106
14.910871 215.78796 -9.6245422
14.935094 215.78172 -9.6239271
14.951801 215.77872 -9.6341534
14.580152 215.80966 -9.629611
14.594272 215.81982 -9.6279259
14.83697 215.81587 -9.6290159
14.859144 215.81477 -9.6301346
14.882292 215.80988 -9.6290216
14.910189 215.80905 -9.6260815
14.582409 215.8273 -9.6301041
14.600743 215.84019 -9.6327047
14.61375 215.8477 -9.6330318
14.783576 215.84732 -9.631938
14.808296 215.84233 -9.6317549
14.832827 215.83907 -9.6322346
14.85759 215.83798 -9.6340075
14.884173 215.83429 -9.6242428
14.604495 215.85796 -9.6402731
14.616758 215.86836 -9.6388435
14.731982 215.87317 -9.6361465
14.757485 215.86853 -9.6379786
14.781725 215.86374 -9.6358938
14.805544 215.86253 -9.6340036
14.831382 215.8597 -9.6328516
14.858713 215.86197 -9.6378345
14.88023 215.85541 -9.6432524
14.623749 215.89371 -9.6442404
14.714244 215.88373 -9.6344461
14.732973 215.89091 -9.6399145
14.755578 215.8873 -9.6396379
14.776629 215.88597 -9.6380577
14.858749 215.88921 -9.6400127
14.657458 215.91681 -9.6442175
14.675554 215.90779 -9.6393785
14.722915 215.91104 -9.6394901
14.835531 215.90894 -9.6379375
14.862487 215.91971 -9.635603
14.884521 215.9126 -9.6290684
14.820129 215.94095 -9.6439438
13.92878 216.23763 -9.620615
13.941309 216.23685 -9.6300182
13.819647 216.26074 -9.6245995
13.84828 216.26245 -9.6246843
13.87149 216.25664 -9.6287441
13.89509 216.25665 -9.6365137
13.921878 216.25133 -9.6298313
13.941697 216.25467 -9.6227474
13.965607 216.24568 -9.6446543
13.718575 216.29314 -9.6222515
13.770446 216.28595 -9.6382542
13.792583 216.28372 -9.6415167
13.813227 216.28616 -9.6383047
13.874516 216.27078 -9.6278982
13.885577 216.27206 -9.6426334
13.91856 216.27837 -9.6348114
14.185181 216.28673 -9.6434689
14.197723 216.28754 -9.6436424
14.763911 216.28821 -9.6247501
13.663975 216.31093 -9.6284599
13.714828 216.30754 -9.6337986
13.740276 216.30414 -9.6396303
13.765841 216.29802 -9.6419926
